ply
format ascii 1.0
element vertex 730
comment vertices
property float x
property float y
property float z
end_header
-0.33809274435043335 0.210761070251464844 0.799507498741149902
0.495648503303527832 -0.11061675101518631 -0.314197748899459839
-0.364635676145553589 -0.0140568753704428673 0.0798461735248565674
-0.101375304162502289 -0.0406971797347068787 -0.584059298038482666
0.252019613981246948 0.193333923816680908 -0.467643260955810547
0.0988472253084182739 0.20373573899269104 -0.583825230598449707
0.269707739353179932 0.178440868854522705 -0.47404816746711731
0.391419798135757446 -0.0155142964795231819 0.336951762437820435
-0.382813334465026855 0.0316583886742591858 0.618629515171051025
0.0488538853824138641 -0.0124991219490766525 0.224195271730422974
0.541659414768218994 0.145462408661842346 -0.283994674682617188
0.679482996463775635 -0.0507298856973648071 -0.0304144304245710373
0.723282814025878906 0.0440746210515499115 -0.109672427177429199
-0.3805064857006073 -0.0152741754427552223 0.0630904808640480042
0.429893016815185547 0.00183555821422487497 -0.0914100110530853271
-0.210665345191955566 -0.267285406589508057 -0.488568812608718872
0.728954672813415527 -0.0316595695912837982 -0.151802346110343933
-0.518205463886260986 -0.0152075495570898056 0.210254564881324768
0.618504345417022705 -0.243312761187553406 0.0652347877621650696
0.367791742086410522 0.143039777874946594 -0.390185266733169556
-0.00379030941985547543 -0.190582111477851868 -0.663953959941864014
0.70070183277130127 0.195665702223777771 -0.134130895137786865
0.0931073203682899475 0.224271863698959351 -0.596738636493682861
0.123192280530929565 -0.0267618205398321152 -0.56364905834197998
0.102024473249912262 0.103078559041023254 -0.590020298957824707
-0.221081659197807312 -0.0136510562151670456 0.129792258143424988
-0.192245736718177795 -0.0140134822577238083 -0.0614186078310012817
0.2016400545835495 0.240332126617431641 -0.513496339321136475
-0.73360210657119751 0.034368075430393219 0.50541532039642334
-0.541060149669647217 -0.0321966707706451416 -0.0924542918801307678
-0.231863394379615784 -0.0144216641783714294 0.10322444885969162
0.414569377899169922 -0.00998265668749809265 -0.295799881219863892
-0.438999563455581665 -0.31645616888999939 -0.163691669702529907
0.329652130603790283 -0.00422597769647836685 -0.419540971517562866
-0.419895440340042114 0.0619523264467716217 0.487396419048309326
-0.343160092830657959 0.13757602870464325 0.790978431701660156
0.609032154083251953 0.264355272054672241 -0.208953782916069031
-0.334500283002853394 -0.240182965993881226 -0.306998372077941895
0.494272828102111816 0.112967334687709808 -0.318129479885101318
0.0430087670683860779 0.0396423861384391785 -0.629745423793792725
0.714375078678131104 0.206612542271614075 -0.158462405204772949
-0.673680245876312256 -0.021896636113524437 0.240720376372337341
-0.105392701923847198 -0.0145018352195620537 0.225235462188720703
0.251854538917541504 0.050111427903175354 -0.476351231336593628
-0.201143667101860046 -0.0151096582412719727 -0.084066048264503479
0.171277880668640137 -0.00827349908649921417 0.317124009132385254
0.00917385518550872803 -0.0112738674506545067 0.173860460519790649
-0.644050478935241699 -0.0370227955281734467 0.172421470284461975
0.398742049932479858 -0.00772155169397592545 -0.367738485336303711
0.231489390134811401 0.0540511757135391235 -0.499911904335021973
0.296428650617599487 0.0329964198172092438 -0.456638187170028687
-0.202877834439277649 -0.0161664187908172607 0.0213877279311418533
-0.697563469409942627 0.0714243054389953613 0.316281348466873169
0.0566760450601577759 -0.00185670366045087576 -0.465686380863189697
0.699438929557800293 0.135372653603553772 -0.137975350022315979
0.185087546706199646 -0.0165972821414470673 0.631163656711578369
-0.703163504600524902 0.0717013999819755554 0.361352264881134033
0.261784791946411133 -0.0327550359070301056 -0.465109258890151978
-0.0335549041628837585 -0.229270622134208679 -0.684556305408477783
0.784479022026062012 0.275051534175872803 -0.119776882231235504
0.269707739353179932 0.178440868854522705 -0.47404816746711731
0.459752112627029419 4.32359302067197859e-05 0.021464277058839798
-0.33438563346862793 -0.0245361942797899246 -0.354172021150588989
0.233388617634773254 0.127996549010276794 -0.487764269113540649
-0.293768435716629028 -0.0318474359810352325 -0.285288125276565552
0.267241477966308594 0.0599618181586265564 -0.47659948468208313
0.319770067930221558 0.184165060520172119 -0.439766258001327515
-0.372824490070343018 0.168870523571968079 0.768966078758239746
0.0286771170794963837 0.173188060522079468 -0.636944472789764404
-0.137789562344551086 -0.0112148411571979523 -0.172365322709083557
-0.635683834552764893 -0.0243958551436662674 0.0949666202068328857
0.213027879595756531 -0.0108918715268373489 0.223217472434043884
0.260514020919799805 0.233784988522529602 -0.479531317949295044
-0.60570913553237915 -0.293739795684814453 0.081640191376209259
0.213879063725471497 0.201334774494171143 -0.504527866840362549
-0.503153502941131592 0.0096259796991944313 0.264285773038864136
-0.450556248426437378 0.0110681625083088875 0.606652617454528809
-0.0559673383831977844 0.212480068206787109 -0.654534339904785156
-0.6818389892578125 -0.000930556969251483679 0.157783940434455872
0.427785545587539673 0.0895118862390518188 -0.347779393196105957
-0.114029809832572937 -0.190719902515411377 -0.664977133274078369
-0.361943215131759644 -0.189553454518318176 -0.273520708084106445
0.337645977735519409 0.105121903121471405 -0.410652786493301392
-0.00540886120870709419 0.20226500928401947 -0.677379965782165527
-0.204979300498962402 0.0443188361823558807 0.821355104446411133
-0.473424196243286133 -0.263099849224090576 -0.12271629273891449
0.733594834804534912 -0.0598498880863189697 -0.0620508454740047455
0.177530005574226379 -0.00986992008984088898 0.205488681793212891
-0.37605971097946167 0.0602977052330970764 0.760031580924987793
0.634696483612060547 -5.93017430219333619e-05 -0.109616674482822418
0.0312347318977117538 -0.0087639782577753067 0.0604037083685398102
0.346832156181335449 -0.00134818931110203266 -0.00119985616765916348
0.240822046995162964 -0.00303076789714396 -0.299456268548965454
-0.523927092552185059 0.0281117819249629974 0.280645817518234253
0.679482996463775635 -0.0507298856973648071 -0.0304144304245710373
-0.491351127624511719 -0.0326510816812515259 -0.172924473881721497
0.315196990966796875 -0.00245066615752875805 -0.430157929658889771
-0.564255118370056152 -0.0220680050551891327 -0.0152801219373941422
-0.313842803239822388 0.0500223599374294281 0.796015262603759766
0.564071536064147949 0.195051386952400208 -0.266444176435470581
-0.49948766827583313 0.0717682167887687683 0.374197959899902344
-0.57867509126663208 -0.377992719411849976 0.102051958441734314
-0.444068342447280884 0.202290326356887817 0.718957304954528809
0.502901077270507812 0.00279647484421730042 -0.0856886953115463257
-0.155477076768875122 -0.00734581612050533295 -0.407943010330200195
0.0935001447796821594 -0.0109180575236678123 0.107437469065189362
-0.229799404740333557 -0.0185115151107311249 -0.373813897371292114
0.59345400333404541 0.270446658134460449 -0.232929646968841553
0.232412382960319519 -0.0272569470107555389 -0.467045038938522339
0.479503929615020752 0.00202811160124838352 -0.0353781357407569885
0.711441636085510254 0.0742974430322647095 -0.125136241316795349
-0.613378643989562988 -0.0365562550723552704 0.0220180749893188477
-0.509149074554443359 0.231831729412078857 0.673625588417053223
-0.438256442546844482 -0.0370165333151817322 -0.259270012378692627
-0.384611755609512329 -0.0209291055798530579 -0.25586816668510437
0.762038230895996094 0.19264434278011322 -0.125463858246803284
0.61613231897354126 -0.213315725326538086 0.0736901313066482544
-0.00240581459365785122 -0.0365214087069034576 -0.65158921480178833
-0.552780330181121826 -0.00742921652272343636 0.202658906579017639
-0.0605432577431201935 0.0579040572047233582 -0.682792842388153076
-0.405302643775939941 0.0343273617327213287 0.708799600601196289
-0.240335434675216675 -0.31822359561920166 -0.44199720025062561
0.139494031667709351 0.011438148096203804 -0.562155604362487793
0.448261916637420654 0.00259210821241140366 -0.092775292694568634
-0.0467666685581207275 -0.026663653552532196 -0.708309769630432129
0.236131146550178528 0.0858406126499176025 -0.487439811229705811
-0.0963498577475547791 -0.00985794980078935623 -0.18662986159324646
0.607596337795257568 -0.00598447490483522415 0.0064484146423637867
-0.704598903656005859 0.0473978444933891296 0.42016446590423584
-0.0200574155896902084 0.00307652400806546211 -0.446837723255157471
0.0242394879460334778 -0.00944583024829626083 0.0390157029032707214
-0.852702319622039795 0.185802474617958069 0.429871976375579834
-0.181082203984260559 -0.225440144538879395 -0.527357995510101318
-0.0137722175568342209 0.00433879252523183823 -0.46132814884185791
0.235841646790504456 -0.0111544765532016754 0.192052006721496582
0.25371059775352478 -0.0262164883315563202 -0.474609851837158203
0.19279441237449646 0.0164739135652780533 -0.526242852210998535
-0.255315691232681274 -0.0137372128665447235 0.317931085824966431
-0.539083719253540039 -0.30962488055229187 -0.0196790043264627457
0.59804689884185791 -0.00436060735955834389 -0.197312682867050171
0.544111192226409912 -0.00137610756792128086 0.0426472052931785583
-0.420810550451278687 0.0118377069011330605 0.683604001998901367
0.645376503467559814 -0.0136177437379956245 -0.128935337066650391
-0.386673241853713989 0.0363187715411186218 0.585173249244689941
0.303591489791870117 -0.0023895136546343565 -0.248108997941017151
0.209014892578125 0.238005369901657104 -0.506858348846435547
-0.495837092399597168 0.104898758232593536 0.678005218505859375
0.735759913921356201 -0.0503768287599086761 -0.0882938727736473083
0.00217924173921346664 -0.00934880506247282028 0.12999260425567627
-0.529098689556121826 -0.245180100202560425 -0.0451776497066020966
0.138033315539360046 0.256066739559173584 -0.558525025844573975
0.651099681854248047 -0.0156159680336713791 -0.131530120968818665
-0.22199520468711853 -0.0126856109127402306 -0.330775469541549683
0.0829578191041946411 -0.00775805395096540451 -0.17129237949848175
-0.629797756671905518 -0.00395396118983626366 0.14896160364151001
0.154251903295516968 0.0105514572933316231 -0.542286932468414307
-0.45832863450050354 0.0671747773885726929 0.523211181163787842
-0.0375401675701141357 -0.0113454544916749001 -0.0529109761118888855
-0.489034801721572876 -0.220158517360687256 -0.0987048372626304626
0.0654130131006240845 -0.00882741436362266541 -0.0825826376676559448
0.700783073902130127 0.217328950762748718 -0.135643288493156433
0.427541434764862061 -0.0409292280673980713 -0.363065868616104126
-0.00932608358561992645 -0.0581134036183357239 -0.673241913318634033
-0.139460727572441101 -0.166169926524162292 -0.608280837535858154
-0.0306992828845977783 0.0791097059845924377 -0.700894594192504883
0.323393702507019043 -0.0077442326582968235 0.300379037857055664
-0.0672584548592567444 -0.0712945759296417236 -0.670373976230621338
-0.345162332057952881 0.0296288207173347473 0.774976611137390137
-0.0573546700179576874 -0.00828405190259218216 0.0462639033794403076
0.258297234773635864 0.241920351982116699 -0.462012678384780884
0.711340844631195068 -0.386281520128250122 0.198186933994293213
-0.443071633577346802 -0.257814764976501465 -0.171059891581535339
0.196836382150650024 0.150281757116317749 -0.526341140270233154
-0.754699170589447021 0.148476526141166687 0.496103435754776001
0.831583023071289062 -0.100267298519611359 -0.100817330181598663
-0.480138927698135376 0.163671195507049561 0.692508280277252197
0.360515505075454712 -0.0118967723101377487 0.336651861667633057
0.299575358629226685 0.057979777455329895 -0.455065608024597168
0.565478086471557617 -0.00641860626637935638 -0.23273622989654541
0.267210304737091064 -0.00820080842822790146 -0.466435164213180542
-0.664502382278442383 0.0514455996453762054 0.554484724998474121
-0.677075624465942383 0.0437463745474815369 0.489131510257720947
0.714221358299255371 -0.14005635678768158 -0.161387011408805847
-0.240723848342895508 -0.279377192258834839 -0.447257012128829956
-0.281652599573135376 0.020755372941493988 0.42913326621055603
-0.189016193151473999 -0.00874432921409606934 0.416073352098464966
-0.411387801170349121 0.0283935647457838058 0.363834887742996216
0.110678903758525848 0.0189918354153633118 -0.583045840263366699
-0.0311229787766933441 -0.314935117959976196 -0.698186755180358887
0.0172615721821784973 0.0740344449877738953 -0.64302140474319458
0.167326003313064575 -0.00675728777423501015 -0.405135273933410645
-0.244834169745445251 -0.312346816062927246 -0.441864252090454102
0.645084798336029053 -0.311396181583404541 0.0366905704140663147
0.258659183979034424 -0.00955151859670877457 0.16722339391708374
0.0142664015293121338 -0.034254513680934906 -0.646970450878143311
-0.514297842979431152 0.186780333518981934 0.668105840682983398
0.451027125120162964 0.00335440738126635551 -0.0303300060331821442
-0.273565828800201416 -0.0123649248853325844 -0.194722622632980347
0.413248211145401001 -0.0133688412606716156 0.29760405421257019
-0.145668119192123413 -0.121764928102493286 -0.556639373302459717
-0.552240371704101562 0.225904121994972229 0.64090961217880249
0.0325067639350891113 -0.000271386204985901713 -0.342568725347518921
0.664789080619812012 -0.192884057760238647 -0.177910864353179932
-0.0791225805878639221 -0.09320782870054245 -0.657324075698852539
0.086913473904132843 0.0646307095885276794 -0.589308381080627441
-0.462845027446746826 0.00434580165892839432 0.616648674011230469
-0.437694460153579712 0.0607982240617275238 0.497258931398391724
0.117313452064990997 -0.130610853433609009 -0.578634381294250488
-0.648549079895019531 -0.184585705399513245 0.133017703890800476
-0.616905272006988525 -0.0369475856423377991 0.0510845929384231567
0.808259248733520508 -0.0906852036714553833 -0.100076727569103241
-0.20077100396156311 -0.0371466353535652161 -0.424572080373764038
0.591434121131896973 -0.0154734626412391663 0.0412913784384727478
0.310626417398452759 -0.00365379056893289089 -0.00172971293795853853
0.439402729272842407 0.263032674789428711 -0.350180447101593018
0.187189027667045593 0.226381093263626099 -0.524612307548522949
0.345224291086196899 0.0696806460618972778 -0.422273397445678711
-0.109540201723575592 -0.0119219338521361351 -0.131871595978736877
-0.213715016841888428 -0.0145908668637275696 0.278885811567306519
-0.447827577590942383 0.150180399417877197 0.71336674690246582
-0.471934318542480469 0.073594801127910614 0.462108820676803589
-0.206759139895439148 -0.0147925158962607384 0.0642469003796577454
0.481821179389953613 0.260271966457366943 -0.322204828262329102
-0.338552027940750122 0.0661255344748497009 0.639172673225402832
0.319770067930221558 0.184165060520172119 -0.439766258001327515
0.376210212707519531 0.0555437207221984863 -0.384626805782318115
-0.0336412154138088226 0.239068478345870972 -0.700600087642669678
0.64683157205581665 -0.165091425180435181 0.0270113926380872726
0.113729521632194519 -0.0300205033272504807 0.76808089017868042
0.25371059775352478 -0.0262164883315563202 -0.474609851837158203
-0.0661596804857254028 -0.0611719712615013123 -0.674203932285308838
0.556602180004119873 0.0648648813366889954 -0.253450095653533936
-0.631895124912261963 0.155743539333343506 0.580565512180328369
0.26736876368522644 0.187963008880615234 -0.457090854644775391
0.841514885425567627 -0.130692213773727417 -0.111722864210605621
-0.196838036179542542 -0.0142702199518680573 0.108371488749980927
0.123499736189842224 -0.00537814805284142494 -0.176926746964454651
-0.15486752986907959 -0.00999868288636207581 -0.219744026660919189
-0.435905486345291138 -0.118369899690151215 -0.15649859607219696
0.352654576301574707 -0.00821695290505886078 0.120625607669353485
0.285601884126663208 -0.201200023293495178 -0.446258723735809326
0.404727667570114136 0.0835000798106193542 -0.363718569278717041
0.624380350112915039 -0.0698968097567558289 0.0433518961071968079
0.0420337915420532227 -0.00636166706681251526 0.122703768312931061
-0.230910152196884155 -0.317121803760528564 -0.456143617630004883
0.55275648832321167 0.133677706122398376 -0.259448319673538208
0.240521207451820374 -0.00530423782765865326 0.388221204280853271
0.389875590801239014 -0.00787453074008226395 0.143691703677177429
0.652924597263336182 -0.155829057097434998 -0.204067885875701904
0.702388107776641846 0.123963713645935059 -0.132125183939933777
0.400876283645629883 0.0396180525422096252 -0.365805238485336304
-0.405801296234130859 0.0404769033193588257 0.73368459939956665
0.275525152683258057 -0.0283736791461706161 -0.469244480133056641
0.467742800712585449 0.150410562753677368 -0.320624709129333496
-0.20077100396156311 -0.0371466353535652161 -0.424572080373764038
0.0068276161327958107 -0.00960952043533325195 -0.109097838401794434
-0.182779192924499512 -0.018474578857421875 -0.44325411319732666
0.29473230242729187 -0.00536432676017284393 -0.316214174032211304
0.59461134672164917 -0.00343828042969107628 -0.21100170910358429
-0.0791225805878639221 -0.09320782870054245 -0.657324075698852539
0.807715892791748047 0.178864017128944397 -0.107598364353179932
-0.193258196115493774 -0.236926048994064331 -0.509455621242523193
-0.301572948694229126 -0.123075410723686218 -0.335426688194274902
-0.533977210521697998 0.124851822853088379 0.651849806308746338
-0.639057636260986328 0.0140136005356907845 0.160532459616661072
-0.26699143648147583 -0.0982273519039154053 -0.371261298656463623
-0.155312642455101013 -0.328959047794342041 -0.551449775695800781
-0.706630289554595947 0.0443080104887485504 0.444992423057556152
-0.0423262044787406921 -0.0126784844323992729 0.24309307336807251
0.0191891547292470932 0.0986319854855537415 -0.641781210899353027
0.288984835147857666 0.0111910188570618629 -0.461468935012817383
0.542156815528869629 -0.00869802199304103851 -0.243620961904525757
-0.222980260848999023 0.0388915091753005981 0.80782550573348999
-0.482574790716171265 -0.0163016002625226974 0.0893508344888687134
0.0384942740201950073 -0.0102549483999609947 0.0151387583464384079
0.617359280586242676 -0.138974457979202271 0.0597639083862304688
0.614522874355316162 -0.0888975039124488831 0.0647978633642196655
-0.391899347305297852 -0.0161666944622993469 0.246643617749214172
-0.0432658977806568146 -0.0866491571068763733 -0.706819772720336914
-0.380087822675704956 -0.0223625451326370239 -0.264777421951293945
0.0140071436762809753 -0.0913344249129295349 -0.649801492691040039
0.699202060699462891 0.0698608383536338806 -0.138555914163589478
-0.424921512603759766 -0.0238962005823850632 -0.241616204380989075
0.2484637051820755 -0.0338304229080677032 -0.469603925943374634
-0.115721128880977631 -0.00813083630055189133 -0.511279881000518799
0.35486188530921936 -0.000443975528469309211 -0.178561359643936157
0.151848331093788147 -0.0330139808356761932 -0.531654179096221924
-0.341573655605316162 0.0565201528370380402 0.784635603427886963
0.777556896209716797 0.249108269810676575 -0.12572595477104187
-0.0544952675700187683 0.226829633116722107 -0.677529871463775635
0.594958484172821045 0.00176590029150247574 -0.0408789440989494324
0.677449584007263184 -0.15583568811416626 -0.00721634458750486374
0.775266408920288086 -0.0311674363911151886 -0.1354246586561203
-0.124351620674133301 -0.0127580650150775909 0.156246662139892578
0.143425434827804565 -0.00488195894286036491 0.530253350734710693
0.293002545833587646 -0.00522288493812084198 -0.00554928043857216835
0.110110931098461151 0.19902510941028595 -0.57654803991317749
0.0292737577110528946 0.155546888709068298 -0.630746185779571533
0.5119284987449646 0.114288635551929474 -0.305451333522796631
-0.0841401517391204834 -0.209590017795562744 -0.695274710655212402
-0.0619148388504981995 -0.00176656979601830244 -0.398115783929824829
-0.575027227401733398 0.0527783520519733429 0.551917314529418945
-0.359344959259033203 0.0133910495787858963 0.366110891103744507
0.73695981502532959 0.013706735335290432 -0.14565575122833252
0.493246495723724365 -0.0138042327016592026 0.211316481232643127
0.756166696548461914 0.0213568564504384995 -0.133430302143096924
-0.479213565587997437 -0.0205736886709928513 -0.140813007950782776
-0.0684092044830322266 -0.00820325035601854324 0.320653468370437622
0.219371676445007324 -0.0096342889592051506 0.153019636869430542
-0.420637607574462891 -0.0350209474563598633 -0.254156678915023804
-0.0663033276796340942 -0.0582891032099723816 -0.683702945709228516
0.0937603488564491272 0.209325775504112244 -0.596193373203277588
0.040483914315700531 -0.00850141234695911407 -0.170196741819381714
-0.110966593027114868 -0.0105010941624641418 -0.0180024895817041397
-0.138413295149803162 -0.154926761984825134 -0.600510060787200928
0.149955719709396362 -0.0048911338672041893 0.552846968173980713
0.160771161317825317 0.0102701876312494278 -0.537463068962097168
0.408085107803344727 0.00235777581110596657 -0.112933792173862457
-0.0359767451882362366 -0.00878240726888179779 0.00388040510006248951
0.0966865271329879761 0.171218067407608032 -0.59366220235824585
-0.405143857002258301 0.0234271809458732605 0.68025130033493042
-0.428511440753936768 0.189571872353553772 0.731631994247436523
0.46088176965713501 -0.0162389520555734634 0.26688307523727417
0.601237118244171143 -0.234605640172958374 0.101130850613117218
-0.0967335477471351624 -0.0137319369241595268 0.194560468196868896
0.199109539389610291 0.215396523475646973 -0.515384852886199951
-0.250337183475494385 -0.0152573222294449806 0.0417667366564273834
-0.717501640319824219 0.239314034581184387 0.525669574737548828
-0.453182697296142578 -0.0324882976710796356 -0.232124149799346924
-0.335944950580596924 -0.113350041210651398 -0.287443459033966064
-0.00053714023670181632 -0.0115215880796313286 0.341061145067214966
-0.105439640581607819 -0.0101591842249035835 -0.0656580924987792969
-0.279800951480865479 -0.0212112013250589371 -0.3134593665599823
0.470279932022094727 -0.20498049259185791 -0.314768552780151367
0.231165871024131775 -0.123375304043292999 -0.500044524669647217
-0.659997701644897461 -0.0172979161143302917 0.123219765722751617
-0.0190584994852542877 -0.000875350437127053738 -0.360557705163955688
0.880880177021026611 -0.383483856916427612 0.161103889346122742
-0.233168497681617737 -0.217861354351043701 -0.448938548564910889
-0.202369719743728638 -0.166324153542518616 -0.49007144570350647
0.0875529572367668152 -0.00337385968305170536 -0.422037452459335327
0.113145478069782257 0.0328224897384643555 -0.581192970275878906
-0.54689711332321167 0.0696313530206680298 0.640268266201019287
0.432243049144744873 0.0232977084815502167 -0.342684656381607056
-0.0164539478719234467 -0.186824977397918701 -0.678364336490631104
0.184232279658317566 0.243588119745254517 -0.516306281089782715
0.659185230731964111 -0.115233130753040314 0.00876409653574228287
-0.0745778456330299377 -0.00267826509661972523 -0.400283724069595337
0.256484627723693848 0.255676984786987305 -0.481877267360687256
-0.606862068176269531 0.0701202526688575745 0.294001221656799316
-0.395485162734985352 -0.0162579305469989777 0.307362943887710571
-0.254022866487503052 -0.0158069077879190445 -0.307453572750091553
0.264446049928665161 -0.00382661609910428524 -0.291574269533157349
-0.777868449687957764 0.0364219397306442261 0.476246744394302368
-0.454410940408706665 0.0103818215429782867 0.694226980209350586
-0.611816525459289551 -0.0305304341018199921 0.019902428612112999
-0.598902106285095215 -0.0624470002949237823 0.110925324261188507
0.120642855763435364 0.245882585644721985 -0.578988134860992432
-0.0559021309018135071 0.0741878971457481384 -0.691823720932006836
-0.0432658977806568146 -0.0866491571068763733 -0.706819772720336914
0.174640357494354248 -0.0491866990923881531 0.705971419811248779
0.0790484771132469177 -0.00441132485866546631 0.545138180255889893
0.230683580040931702 -0.00927643012255430222 0.152695491909980774
-0.499875307083129883 -0.345658987760543823 -0.0280974879860877991
0.0539624989032745361 -0.00107152655255049467 -0.382864922285079956
-0.17415405809879303 -0.0554909557104110718 -0.47795751690864563
-0.503054618835449219 -0.114456713199615479 -0.0564898699522018433
0.122051291167736053 0.0816251859068870544 -0.56561732292175293
-0.319314956665039062 -0.0158343128859996796 -0.171352863311767578
0.284080654382705688 -0.00246940949000418186 -0.281848132610321045
-0.316820651292800903 -0.219280332326889038 -0.325814276933670044
0.0738598480820655823 0.163603976368904114 -0.609309375286102295
0.0381464958190917969 -0.0559903755784034729 -0.633640587329864502
0.722887158393859863 -0.380887359380722046 0.190695852041244507
-0.423652946949005127 -0.0209635980427265167 -0.210134774446487427
-0.0387866869568824768 0.132834881544113159 -0.703223526477813721
0.298274338245391846 0.253572762012481689 -0.428327709436416626
0.601237118244171143 -0.234605640172958374 0.101130850613117218
0.434857666492462158 0.00347238080576062202 -0.0589851103723049164
0.0911658778786659241 0.0591728612780570984 -0.59627687931060791
0.618606746196746826 -0.00330916326493024826 -0.192678481340408325
-0.412553369998931885 -0.0240717418491840363 -0.255022972822189331
0.670348763465881348 -0.197167560458183289 -0.177697271108627319
-0.114930756390094757 -0.0138360494747757912 0.245261013507843018
-0.563648998737335205 0.0487917885184288025 0.276757895946502686
0.150314837694168091 -0.00573470676317811012 -0.403813809156417847
-0.0762288421392440796 -0.0117328455671668053 0.268326789140701294
0.562749087810516357 0.235432803630828857 -0.266553819179534912
-0.271664708852767944 -0.026060083881020546 -0.322171121835708618
-0.140234723687171936 -0.0743113234639167786 -0.548164486885070801
0.639423966407775879 -0.188469067215919495 0.0320352651178836823
0.196315035223960876 -0.182633548974990845 -0.524421751499176025
0.120745234191417694 0.0116130607202649117 -0.576195240020751953
-0.723581433296203613 -0.00447558844462037086 0.29550480842590332
-0.499026626348495483 -0.0209955330938100815 -0.103712640702724457
-0.714199602603912354 0.191417917609214783 0.525040507316589355
-0.532876491546630859 0.0760189294815063477 0.371015995740890503
0.223953574895858765 -0.00359291373752057552 0.447898775339126587
-0.551789283752441406 -0.0263565126806497574 -0.0574071966111660004
0.597597420215606689 0.158871576189994812 -0.225741297006607056
0.689219474792480469 0.174124017357826233 -0.159126773476600647
-0.0065318928100168705 0.00162579701282083988 -0.522143244743347168
0.0929006710648536682 -0.187940523028373718 -0.594827771186828613
0.541150331497192383 -0.099757559597492218 -0.28257143497467041
-0.208725154399871826 -0.315810739994049072 -0.491199523210525513
-0.0543109849095344543 -0.0113161187618970871 0.276092886924743652
-0.860602021217346191 0.161689266562461853 0.421981155872344971
-0.0616864524781703949 -0.000220196103327907622 -0.514493346214294434
-0.255587548017501831 -0.101646319031715393 -0.388811171054840088
0.689415454864501953 0.160777688026428223 -0.158021062612533569
0.815148353576660156 -0.145156383514404297 -0.0982266440987586975
-0.500402629375457764 -0.00132810696959495544 0.246052965521812439
-0.347708284854888916 0.0113266725093126297 0.770889580249786377
0.076543465256690979 -0.0182956513017416 -0.561784505844116211
0.700840413570404053 -0.0347586944699287415 -0.114114150404930115
0.752582132816314697 -0.0321035049855709076 -0.136405616998672485
-0.0950494706630706787 -0.110080137848854065 -0.664492964744567871
-0.402996420860290527 -0.321131020784378052 -0.212939992547035217
-0.628006577491760254 0.066289067268371582 0.477602243423461914
-0.291404873132705688 -0.0144969923421740532 0.336873620748519897
0.146617487072944641 0.197578281164169312 -0.551575124263763428
-0.191664531826972961 0.202482372522354126 0.900623500347137451
-0.477975219488143921 -0.348776429891586304 -0.0570776909589767456
-0.479394376277923584 0.051801685243844986 0.336380928754806519
0.720697462558746338 0.200933009386062622 -0.11433970183134079
0.226725399494171143 -0.0121410274878144264 -0.42437329888343811
-0.0313727855682373047 -0.229759171605110168 -0.696683168411254883
-0.694768011569976807 0.0434639230370521545 0.35169103741645813
-0.685513794422149658 0.0760914161801338196 0.34139096736907959
0.315283000469207764 -0.00308191869407892227 -0.0472479350864887238
0.171814978122711182 -0.00560425082221627235 -0.102177567780017853
0.49227750301361084 0.00305400043725967407 -0.318322569131851196
-0.825234830379486084 0.0194531772285699844 0.443360030651092529
0.138033315539360046 0.256066739559173584 -0.558525025844573975
0.507263123989105225 0.00192962982691824436 -0.0628513023257255554
-0.682243645191192627 0.0277335271239280701 0.201036885380744934
0.502564668655395508 -0.0107731893658638 -0.287084668874740601
0.692705750465393066 -0.157398059964179993 -0.17644067108631134
-0.689643979072570801 0.0749619677662849426 0.366160333156585693
-0.672301411628723145 -0.168878272175788879 0.14363563060760498
-0.616322338581085205 -0.207936733961105347 0.0827710926532745361
-0.576054811477661133 0.0727139338850975037 0.329657256603240967
0.391218841075897217 0.248827740550041199 -0.370119065046310425
0.646940827369689941 -0.291840791702270508 0.0317898690700531006
0.327960789203643799 -0.106859393417835236 -0.430970698595046997
-0.0457293204963207245 -0.00746115157380700111 0.921577095985412598
-0.441985607147216797 0.0281316284090280533 0.713976263999938965
0.759468972682952881 -0.385558158159255981 0.207498490810394287
0.443028539419174194 0.268083810806274414 -0.335457563400268555
0.805700063705444336 0.0680226385593414307 -0.11674044281244278
-0.100899003446102142 -0.0234875455498695374 -0.566650867462158203
-0.233442887663841248 -0.0736934170126914978 -0.402186095714569092
0.4887351393699646 -0.00787098705768585205 0.116543002426624298
-0.199583083391189575 -0.304397225379943848 -0.518794894218444824
-0.282292723655700684 -0.295140713453292847 -0.385958701372146606
-0.660471022129058838 0.0298854392021894455 0.291674822568893433
-0.0111232493072748184 -0.00791067909449338913 -0.589267730712890625
0.39790913462638855 0.251089155673980713 -0.382268905639648438
0.673117160797119141 -0.00541579257696866989 -0.0843167975544929504
0.534392952919006348 -0.0007815150311216712 0.034831661731004715
-0.391721993684768677 0.100250110030174255 0.752445697784423828
0.556956231594085693 -0.0236737988889217377 0.188352450728416443
0.222198620438575745 0.183192133903503418 -0.489038825035095215
0.633465409278869629 -0.289145976305007935 0.0450044684112071991
-0.197290405631065369 -0.08077973872423172 -0.460581541061401367
0.279587596654891968 -0.00342587660998106003 -0.0865745171904563904
0.0068276161327958107 -0.00960952043533325195 -0.109097838401794434
0.18417242169380188 -0.00373022141866385937 -0.149221420288085938
0.607596337795257568 -0.00598447490483522415 0.0064484146423637867
-0.42311742901802063 -0.0144011089578270912 0.0388122014701366425
-0.250337183475494385 -0.0152573222294449806 0.0417667366564273834
-0.657346367835998535 0.0624052397906780243 0.246684268116950989
0.174140438437461853 0.154771804809570312 -0.532080411911010742
-0.0402940362691879272 0.283928602933883667 -0.663470089435577393
0.065455220639705658 0.245279639959335327 -0.607986927032470703
-0.476601600646972656 -0.000115886468847747892 0.624188899993896484
0.700840413570404053 -0.0347586944699287415 -0.114114150404930115
0.851301789283752441 -0.154307112097740173 -0.143683120608329773
-0.489909619092941284 -0.139230594038963318 -0.0828778073191642761
-0.0815557613968849182 -0.0117035889998078346 0.0795346200466156006
-0.576936542987823486 0.0172453876584768295 0.214514210820198059
-0.0545809529721736908 0.126285701990127563 -0.656134605407714844
-0.244595706462860107 -0.321817457675933838 -0.430849075317382812
0.739628314971923828 -0.0703066065907478333 -0.0619657933712005615
-0.679495453834533691 0.0589866489171981812 0.384130120277404785
-0.658053576946258545 0.0487133897840976715 0.488512188196182251
-0.585712254047393799 -0.323511719703674316 0.0637715384364128113
-0.583268523216247559 -0.0191073678433895111 0.0975443944334983826
-0.0872663706541061401 -0.00339114619418978691 -0.508690118789672852
0.490981221199035645 -0.00030966062331572175 0.00639580702409148216
-0.549128353595733643 -0.299162954092025757 -0.00683297030627727509
0.00802373141050338745 0.00325001892633736134 -0.409889519214630127
0.654143691062927246 -0.137886732816696167 0.0132700838148593903
0.0604568645358085632 -0.000373057584511116147 -0.617244601249694824
-0.698838531970977783 0.071356453001499176 0.325645506381988525
0.379117816686630249 -0.00851460359990596771 0.154678195714950562
0.525309443473815918 -0.00281951040960848331 0.0427328906953334808
0.58278191089630127 -4.64254662801977247e-05 -0.232627227902412415
0.206476807594299316 -0.140720948576927185 -0.516548514366149902
0.640473246574401855 -0.0849859118461608887 0.0256653297692537308
0.296739250421524048 0.141510531306266785 -0.438101381063461304
-0.580542981624603271 0.0778721272945404053 0.61392819881439209
-0.522882640361785889 0.0723651722073554993 0.35896947979927063
0.100654467940330505 -0.00952501781284809113 0.0168956015259027481
0.692703902721405029 -0.198464006185531616 -0.155144974589347839
0.0340213626623153687 0.228777423501014709 -0.630497992038726807
-0.567049920558929443 -0.19158598780632019 0.0163852758705615997
0.509952723979949951 0.0896799042820930481 -0.306344419717788696
0.226382672786712646 0.118142418563365936 -0.492474079132080078
-0.365535348653793335 -0.0957297682762145996 -0.228659287095069885
-0.372891277074813843 0.0485499352216720581 0.694840967655181885
0.279969394207000732 -0.0168914273381233215 0.502294480800628662
-0.621603548526763916 0.0605457015335559845 0.499403566122055054
0.673117160797119141 -0.00541579257696866989 -0.0843167975544929504
0.291459918022155762 0.102881118655204773 -0.443823635578155518
-0.425957590341567993 -0.0226234178990125656 -0.231067270040512085
-0.610478460788726807 -0.0372779183089733124 0.144175887107849121
0.674655675888061523 -0.0833704695105552673 -0.0203197449445724487
0.499017268419265747 -0.00994997378438711166 0.132020056247711182
0.0947494953870773315 0.155058622360229492 -0.5955771803855896
0.462017089128494263 0.00235060928389430046 -0.108324162662029266
0.0475273542106151581 0.238963648676872253 -0.626582026481628418
-0.12706737220287323 -0.0178482886403799057 -0.511888504028320312
0.169576168060302734 -0.00792961940169334412 0.293137460947036743
-0.618327438831329346 -0.178538426756858826 0.0892723947763442993
0.174366921186447144 -0.00523324077948927879 0.538585841655731201
0.35906451940536499 0.259027421474456787 -0.408354133367538452
-0.477975219488143921 -0.348776429891586304 -0.0570776909589767456
0.481920093297958374 -0.00146364257670938969 -0.200914576649665833
0.569246292114257812 -0.0148915890604257584 -0.194313734769821167
0.684068977832794189 -0.00902205519378185272 -0.145795613527297974
-0.622937679290771484 -0.33368644118309021 0.157397419214248657
0.370107084512710571 0.010983029380440712 -0.389394253492355347
-0.495577991008758545 -0.336086452007293701 -0.0512511581182479858
-0.0320097506046295166 -0.297478139400482178 -0.696787774562835693
-0.21270066499710083 -0.013051304966211319 -0.148451521992683411
-0.634426593780517578 0.0447816364467144012 0.515891492366790771
0.026211172342300415 -0.010304642841219902 -0.0279179289937019348
0.254561483860015869 -0.00803538598120212555 0.11487405002117157
-0.315415054559707642 0.0710085630416870117 0.572088122367858887
-0.138263672590255737 -0.014258209615945816 0.267190217971801758
0.597597420215606689 0.158871576189994812 -0.225741297006607056
-0.635181725025177002 0.0752776190638542175 0.418843269348144531
-0.597065865993499756 -0.0362528152763843536 0.0270142275840044022
-0.541597545146942139 -0.255448967218399048 -0.0287905223667621613
-0.0659608989953994751 -0.00350077170878648758 -0.359406948089599609
-0.0357074066996574402 -0.262428820133209229 -0.702773690223693848
-0.513933479785919189 0.0647165477275848389 0.533804893493652344
0.0671219751238822937 -0.00902965478599071503 0.38852393627166748
0.631685912609100342 -0.0364371016621589661 0.0166662707924842834
-0.37781214714050293 0.040941435843706131 0.546874582767486572
-0.306053102016448975 -0.015099656768143177 -0.0736919417977333069
-0.117811888456344604 -0.0922099575400352478 -0.612092554569244385
0.514753282070159912 -0.0120740076526999474 -0.244876310229301453
0.229846268892288208 -0.00277174613438546658 -0.106486670672893524
-0.443853646516799927 -0.0344793945550918579 -0.0850441679358482361
0.300180166959762573 0.203551888465881348 -0.452998161315917969
0.253742426633834839 -0.202234372496604919 -0.470643162727355957
-0.627187728881835938 -0.0289060939103364944 0.0570887960493564606
0.55965656042098999 0.104376502335071564 -0.252004802227020264
0.403617531061172485 0.0341763123869895935 -0.380485594272613525
0.621833443641662598 -0.295058369636535645 0.0656871572136878967
0.540698587894439697 -0.0143375545740127563 0.150806024670600891
-0.622853696346282959 0.089423641562461853 0.584370613098144531
-0.703389227390289307 0.144455581903457642 0.531453609466552734
-0.133886516094207764 0.0271915029734373093 0.920490622520446777
-0.491675913333892822 -0.0677992776036262512 -0.0441903918981552124
0.167475640773773193 -0.0105829192325472832 0.0510701015591621399
-0.658316969871520996 0.0316114500164985657 0.532044887542724609
0.143430158495903015 0.233203113079071045 -0.562946617603302002
-0.639617264270782471 -0.0320671200752258301 0.0691863521933555603
-0.42284083366394043 0.0569864138960838318 0.530746996402740479
-0.453140318393707275 -0.0671384483575820923 -0.0989886671304702759
0.688541293144226074 0.0288426969200372696 -0.159021243453025818
0.110899098217487335 -0.0104542747139930725 0.167297735810279846
-0.120786271989345551 -0.0105217667296528816 -0.515395879745483398
-0.390084207057952881 0.0345423966646194458 0.613625824451446533
-0.631895124912261963 0.155743539333343506 0.580565512180328369
0.206494763493537903 -0.00785535480827093124 0.0138654643669724464
-0.465581715106964111 0.139906361699104309 0.701842784881591797
-0.551093876361846924 0.0905099734663963318 0.63868403434753418
-0.231863394379615784 -0.0144216641783714294 0.10322444885969162
0.604649007320404053 0.0139544950798153877 -0.239757299423217773
-0.460182338953018188 -0.157067745923995972 -0.133779019117355347
-0.199822187423706055 -0.0154908280819654465 0.0359666645526885986
-0.173240512609481812 -0.0322108864784240723 -0.4625721275806427
0.476958900690078735 0.00361823313869535923 -0.310626417398452759
0.427541434764862061 -0.0409292280673980713 -0.363065868616104126
-0.523568451404571533 -0.328554421663284302 -0.024747924879193306
0.81742405891418457 -0.0763521939516067505 -0.0959522277116775513
0.343411713838577271 -0.160050779581069946 -0.418344229459762573
0.519006609916687012 0.139125660061836243 -0.283209651708602905
-0.0633453279733657837 0.00145407393574714661 -0.675929605960845947
-0.499921917915344238 -0.0164460353553295135 0.0930119454860687256
0.798878073692321777 0.113687150180339813 -0.120465502142906189
0.46342960000038147 -0.00834150239825248718 0.160695001482963562
0.110110931098461151 0.19902510941028595 -0.57654803991317749
-0.623662352561950684 -0.0365441665053367615 0.0455195195972919464
-0.237690865993499756 -0.0211645793169736862 -0.369710177183151245
0.34900134801864624 -0.00123348413035273552 -0.120483770966529846
-0.337064534425735474 0.0121138179674744606 0.777577698230743408
-0.209954351186752319 0.0342871174216270447 0.489717453718185425
-0.358932614326477051 0.151525512337684631 0.779807031154632568
-0.374252796173095703 0.0480090118944644928 0.705540478229522705
-0.547388195991516113 -0.291176915168762207 -0.0116605889052152634
0.14489687979221344 0.0444893389940261841 -0.558741450309753418
-0.611481666564941406 0.0336980000138282776 0.570183873176574707
0.181706175208091736 0.0976247265934944153 -0.526163756847381592
0.602669477462768555 -0.04573054239153862 0.0592642948031425476
0.73695981502532959 -0.00479107676073908806 -0.145690396428108215
0.502110719680786133 0.240255773067474365 -0.309282243251800537
0.371113896369934082 -0.0114126717671751976 0.238012507557868958
-0.322140336036682129 -0.013395184651017189 -0.0857746899127960205
-0.189295932650566101 -0.291830867528915405 -0.616224288940429688
-0.0573546700179576874 -0.00828405190259218216 0.0462639033794403076
-0.257214605808258057 0.08235129714012146 0.536570370197296143
-0.478857576847076416 -0.176432907581329346 -0.10780470073223114
0.499017268419265747 -0.00994997378438711166 0.132020056247711182
-0.454414397478103638 -0.259342491626739502 -0.153333947062492371
0.103307217359542847 0.0301061086356639862 -0.578211963176727295
0.277558267116546631 0.164587423205375671 -0.469267487525939941
0.0262959115207195282 0.1334809809923172 -0.639932692050933838
0.0479088388383388519 0.116829350590705872 -0.616713821887969971
0.0371289923787117004 0.00704182591289281845 0.624299466609954834
0.710642158985137939 0.135254517197608948 -0.128016442060470581
0.516411483287811279 0.24203057587146759 -0.284095793962478638
-0.282352238893508911 -0.0625710338354110718 -0.324956804513931274
-0.364981561899185181 0.0949650034308433533 0.772007226943969727
0.19621044397354126 -0.106722384691238403 0.708024382591247559
0.336522608995437622 0.265912860631942749 -0.408504366874694824
-0.149839550256729126 -0.22727850079536438 -0.692916214466094971
0.608429551124572754 -0.20923885703086853 0.0889545455574989319
-0.641071081161499023 -0.0171185936778783798 0.140799224376678467
0.704986035823822021 -0.0165178980678319931 -0.115189932286739349
-0.32649385929107666 -0.146165981888771057 -0.310773223638534546
0.28182673454284668 0.0909837186336517334 -0.450354874134063721
-0.616824448108673096 0.194679737091064453 0.592420518398284912
0.538942694664001465 0.00200019334442913532 -0.101369552314281464
-0.166307017207145691 -0.104223676025867462 -0.523926198482513428
-0.405142307281494141 -0.0276757217943668365 -0.279840558767318726
-0.0854610130190849304 -0.0133978622034192085 0.202960371971130371
-0.139332517981529236 -0.124894984066486359 -0.56856834888458252
0.0770065411925315857 0.270710408687591553 -0.601473331451416016
0.232704728841781616 0.207450881600379944 -0.500555515289306641
-0.359701871871948242 -0.0153712006285786629 0.152793139219284058
0.360436111688613892 -0.0029518564697355032 -0.226004958152770996
0.756166696548461914 0.0213568564504384995 -0.133430302143096924
0.7015189528465271 0.174241349101066589 -0.168843120336532593
-0.563648998737335205 0.0487917885184288025 0.276757895946502686
0.804555952548980713 0.0936286672949790955 -0.104009389877319336
-0.455976873636245728 0.0250117890536785126 0.325617164373397827
-0.589938938617706299 -0.0370605960488319397 0.119955256581306458
-0.140074059367179871 -0.0655864104628562927 -0.541359484195709229
0.344803452491760254 0.113805711269378662 -0.422564178705215454
0.0604568645358085632 -0.000373057584511116147 -0.617244601249694824
0.788168489933013916 -0.0193509142845869064 -0.131958857178688049
0.574661731719970703 0.0824954956769943237 -0.261080712080001831
-0.595782995223999023 0.0525910370051860809 0.508154988288879395
0.44059377908706665 -0.0196018647402524948 0.298673868179321289
-0.0782203748822212219 -0.0099963601678609848 0.293314814567565918
-0.0920810773968696594 -0.211812645196914673 -0.689848244190216064
-0.648969769477844238 0.0568958073854446411 0.565048456192016602
0.4299049973487854 -0.00416919589042663574 -0.223157539963722229
-0.395877689123153687 -0.113482825458049774 -0.20041559636592865
0.164759263396263123 -0.0060677574947476387 0.434416085481643677
0.427785545587539673 0.0895118862390518188 -0.347779393196105957
-0.00387441855855286121 0.274910718202590942 -0.681586325168609619
0.61148679256439209 0.221038535237312317 -0.23253650963306427
-0.152547121047973633 -0.00951611809432506561 -0.293823480606079102
0.2016400545835495 0.240332126617431641 -0.513496339321136475
0.405606865882873535 -0.160837173461914062 -0.375406593084335327
0.427918493747711182 -0.12733912467956543 -0.360870838165283203
0.187777787446975708 -0.0060827992856502533 -0.0667993947863578796
-0.12174486368894577 0.223087608814239502 0.951135039329528809
0.180523917078971863 -0.148479491472244263 -0.535635948181152344
-0.393374890089035034 -0.0374617688357830048 -0.152719661593437195
0.0568348132073879242 -0.0104730576276779175 0.0513643249869346619
-0.478857576847076416 -0.176432907581329346 -0.10780470073223114
-0.0660579279065132141 -0.0466247163712978363 -0.678303897380828857
-0.608649969100952148 0.0525249242782592773 0.493162781000137329
-0.136365070939064026 -0.13951486349105835 -0.672742247581481934
0.661671042442321777 -0.014536605216562748 -0.0352694541215896606
-0.139332517981529236 -0.124894984066486359 -0.56856834888458252
0.302016079425811768 0.219925984740257263 -0.432663589715957642
0.7018280029296875 0.150529235601425171 -0.132211193442344666
0.0315872356295585632 -0.00739074544981122017 0.073393702507019043
0.0845820456743240356 -0.0275882650166749954 0.800597488880157471
0.805700063705444336 0.0680226385593414307 -0.11674044281244278
-0.540837883949279785 0.00769690144807100296 0.222895517945289612
-0.0824097692966461182 -0.125815302133560181 -0.686491429805755615
0.307477205991744995 0.091488964855670929 -0.449159085750579834
-0.697244226932525635 0.0255632251501083374 0.331257849931716919
-0.141265138983726501 -0.0134703945368528366 0.212876439094543457
-0.158649608492851257 -0.33506438136100769 -0.536113858222961426
0.647514164447784424 -0.0927475914359092712 0.0145748797804117203
-0.364635676145553589 -0.0140568753704428673 0.0798461735248565674
0.236131146550178528 0.0858406126499176025 -0.487439811229705811
0.061145491898059845 -0.00721039902418851852 -0.219729840755462646
0.583571016788482666 0.0526842810213565826 -0.254816323518753052
-0.212622225284576416 -0.0153431249782443047 -0.0755603015422821045
-0.34899669885635376 0.0475249923765659332 0.615117728710174561
-0.0574831962585449219 -0.00770761212334036827 0.00825629103928804398
-0.0506139583885669708 -0.103367328643798828 -0.710537254810333252
0.115444779396057129 -0.00879559852182865143 0.0422537513077259064
-0.0702044814825057983 -0.355235129594802856 -0.694484353065490723
0.489976614713668823 -0.0118190813809633255 -0.319658547639846802
0.583937346935272217 -0.191299289464950562 -0.253111779689788818
-0.0775597840547561646 -0.182554960250854492 -0.694221317768096924
-0.319545865058898926 -0.0153319807723164558 0.292192399501800537
0.209840238094329834 0.174422726035118103 -0.505134880542755127
0.108612082898616791 -0.00946418009698390961 0.0388947352766990662
0.433689892292022705 0.182301580905914307 -0.343477219343185425
0.0337724983692169189 0.207751959562301636 -0.628940820693969727
0.722118198871612549 -0.0336484238505363464 -0.0974132716655731201
0.134624838829040527 -0.0192358940839767456 -0.519037485122680664
-0.399832397699356079 0.0621424354612827301 0.386111557483673096
0.432096540927886963 -0.168295621871948242 -0.357488185167312622
0.16222149133682251 0.0122217107564210892 -0.546783447265625
0.618600428104400635 0.000989504274912178516 -0.23014773428440094
0.304426580667495728 -0.0137158706784248352 -0.437535613775253296
-0.627914607524871826 0.0727858021855354309 0.299102902412414551
-0.17831730842590332 -0.0137342596426606178 0.304786115884780884
-0.0245841946452856064 0.00406374456360936165 -0.482092738151550293
0.798638999462127686 0.274036616086959839 -0.0849647894501686096
-0.322878718376159668 -0.303439289331436157 -0.327674448490142822
0.194216713309288025 -0.123266682028770447 0.730078637599945068
0.548982858657836914 0.0381571650505065918 -0.2793598473072052
0.474961072206497192 -0.0279133226722478867 -0.330187022686004639
0.049173939973115921 0.0582171045243740082 -0.626053750514984131
0.0274362694472074509 -0.1217237189412117 -0.639545857906341553
