ply
format ascii 1.0
element vertex 747
comment vertices
property float x
property float y
property float z
end_header
-0.115883588790893555 0.425777673721313477 -0.324421882629394531
0.161459207534790039 0.0392823219299316406 0.339779376983642578
0.0800120830535888672 0.452123701572418213 -0.0983612537384033203
-0.267098188400268555 0.363535046577453613 0.260279655456542969
0.22595667839050293 0.185214772820472717 0.261752843856811523
0.203933477401733398 0.445385515689849854 -0.0121943950653076172
-0.346725225448608398 0.268697857856750488 0.243403911590576172
-0.33009648323059082 0.225307419896125793 0.175324440002441406
0.147828340530395508 0.322779357433319092 0.282057046890258789
-0.197707176208496094 0.414745688438415527 -0.332934379577636719
0.13898158073425293 0.326948225498199463 0.289333820343017578
0.15143275260925293 0.451005280017852783 0.02257537841796875
0.130260229110717773 0.444183111190795898 0.257838964462280273
0.0466105937957763672 0.447361946105957031 0.1126251220703125
0.278280019760131836 0.449548959732055664 -0.162011384963989258
-0.353878021240234375 0.340817570686340332 0.188356637954711914
-0.333201408386230469 0.19634576141834259 0.172459840774536133
-0.366624593734741211 0.109183430671691895 0.220126628875732422
-0.237330198287963867 0.436794042587280273 0.165307044982910156
0.239241361618041992 0.426631569862365723 0.340799093246459961
0.282339334487915039 0.449812054634094238 -0.225322484970092773
0.211179494857788086 0.436467528343200684 0.278700351715087891
0.166731119155883789 0.231300011277198792 0.312227487564086914
0.305133581161499023 0.452869415283203125 -0.242106914520263672
0.179437875747680664 0.0750466138124465942 0.347158193588256836
0.161989927291870117 0.11718343198299408 0.331126689910888672
0.118715524673461914 0.45376056432723999 -0.0849776268005371094
-0.213649511337280273 0.435259580612182617 0.240354299545288086
0.0925862789154052734 0.448910892009735107 0.0377192497253417969
0.145925283432006836 0.442259013652801514 0.303482770919799805
0.214412927627563477 0.156187102198600769 0.348608255386352539
-0.221771240234375 0.438126027584075928 0.100907802581787109
-0.120045900344848633 0.439123213291168213 0.241130828857421875
-0.300650358200073242 0.434400379657745361 -0.105042934417724609
0.235131025314331055 0.440736114978790283 0.0171883106231689453
-0.148749589920043945 0.443267345428466797 -0.0621292591094970703
-0.339285612106323242 0.426777780055999756 0.115095853805541992
-0.222770452499389648 0.439365208148956299 -0.00581073760986328125
-0.179712772369384766 0.438836097717285156 0.126864910125732422
0.0391213893890380859 0.452401220798492432 -0.217349529266357422
0.172399282455444336 0.442194581031799316 0.165578365325927734
0.0531392097473144531 0.453057706356048584 -0.175429582595825195
-0.0945038795471191406 0.443841457366943359 -0.0112149715423583984
-0.270234107971191406 0.0628026276826858521 -0.318305253982543945
-0.242538213729858398 0.349146246910095215 -0.362069368362426758
-0.326919317245483398 0.203233465552330017 0.252282619476318359
-0.0205609798431396484 0.370321094989776611 0.30297398567199707
-0.3159637451171875 0.335993111133575439 0.263331174850463867
0.197365999221801758 0.0652397423982620239 0.285820245742797852
-0.3159637451171875 0.335993111133575439 0.263331174850463867
0.0757896900177001953 0.450695991516113281 -0.127384662628173828
-0.0940387248992919922 0.441820800304412842 0.0560898780822753906
0.167742490768432617 0.350275814533233643 0.32843327522277832
-0.0742671489715576172 0.438431918621063232 0.269095420837402344
-0.359940052032470703 0.239969179034233093 0.19689488410949707
0.0897729396820068359 0.446406543254852295 0.163822174072265625
0.109391927719116211 0.45009768009185791 0.104978084564208984
-0.130105018615722656 0.439076721668243408 0.173753976821899414
-0.308007240295410156 0.435382843017578125 0.0968041419982910156
0.28137660026550293 0.463890373706817627 0.0202112197875976562
0.17107701301574707 0.247101679444313049 0.330587625503540039
-0.00433444976806640625 0.449769437313079834 -0.179279565811157227
-0.168184041976928711 0.434398293495178223 -0.327218294143676758
0.167155981063842773 0.454421043395996094 -0.147841453552246094
0.0252497196197509766 0.429558038711547852 0.302248239517211914
0.200206995010375977 0.107179403305053711 0.281740188598632812
-0.298546791076660156 0.366712629795074463 -0.197370052337646484
-0.264707803726196289 0.438431680202484131 -0.210873603820800781
-0.365567922592163086 0.121993958950042725 0.196745157241821289
-0.136809825897216797 0.439386665821075439 0.165106058120727539
-0.0908315181732177734 0.440638363361358643 0.214126348495483398
-0.0882015228271484375 0.440343976020812988 0.18145442008972168
-0.156707763671875 0.444012105464935303 -0.155623435974121094
0.257302522659301758 0.445155918598175049 0.134167671203613281
0.171724557876586914 0.070278853178024292 0.299808979034423828
-0.181207656860351562 0.441852390766143799 -0.0728733539581298828
-0.35449528694152832 0.14906330406665802 0.18457484245300293
-0.105281352996826172 0.441661238670349121 0.0861670970916748047
0.143198251724243164 0.450776875019073486 0.0696356296539306641
-0.115883588790893555 0.425777673721313477 -0.324421882629394531
0.237949132919311523 0.441884756088256836 0.0368053913116455078
-0.255033016204833984 0.0586708486080169678 -0.340753793716430664
-0.262957334518432617 0.32157742977142334 -0.342652797698974609
-0.366047382354736328 0.0642661303281784058 0.21503448486328125
0.219028234481811523 0.182093486189842224 0.347112655639648438
0.149528264999389648 0.450514733791351318 -0.0187349319458007812
0.272214174270629883 0.450091361999511719 -0.202059268951416016
0.181934118270874023 0.196183428168296814 0.295336246490478516
-0.226105451583862305 0.340750217437744141 0.267137289047241211
-0.314806938171386719 0.430664181709289551 -0.0442712306976318359
-0.342925548553466797 0.281409680843353271 0.179481029510498047
0.125663518905639648 0.446213603019714355 0.21837615966796875
0.173038721084594727 0.451808452606201172 -0.0921094417572021484
-0.340785741806030273 0.354483366012573242 0.245111227035522461
0.182000398635864258 0.4486541748046875 0.0336177349090576172
-0.208105564117431641 0.423822462558746338 -0.342868566513061523
0.209429502487182617 0.457643449306488037 -0.221213817596435547
0.0687663555145263672 0.45033949613571167 -0.0719439983367919922
-0.353023290634155273 0.231757745146751404 0.187017440795898438
-0.231852054595947266 0.424823164939880371 -0.348207235336303711
0.189429998397827148 0.439088761806488037 0.275398015975952148
0.140615224838256836 0.450783014297485352 0.00215077400207519531
0.0866968631744384766 0.452699244022369385 -0.192004203796386719
0.116263151168823242 0.429554939270019531 -0.280706167221069336
-0.340475320816040039 0.432343542575836182 0.21611475944519043
0.207155942916870117 0.151336431503295898 0.281998395919799805
0.166731119155883789 0.231300011277198792 0.312227487564086914
-0.339971303939819336 0.144829899072647095 0.174533367156982422
0.28137660026550293 0.463890373706817627 0.0202112197875976562
0.217536211013793945 0.283959448337554932 0.243504524230957031
-0.129207611083984375 0.444857180118560791 -0.218873500823974609
-0.322196245193481445 0.362303435802459717 0.249143362045288086
-0.109715461730957031 0.440515041351318359 0.190854072570800781
-0.277318954467773438 0.276253998279571533 -0.294039487838745117
-0.327326536178588867 0.42933809757232666 0.0318012237548828125
-0.245207786560058594 0.440204858779907227 -0.205873250961303711
-0.277526617050170898 0.212450101971626282 -0.292031288146972656
-0.180542945861816406 0.431341409683227539 0.261671304702758789
-0.337067604064941406 0.144406512379646301 0.249898195266723633
-0.104620695114135742 0.434620559215545654 0.272181034088134766
-0.326024055480957031 0.363483726978302002 -0.0140433311462402344
-0.278090238571166992 0.300683438777923584 -0.303873538970947266
0.193993330001831055 0.103330612182617188 0.282489299774169922
-0.346989870071411133 0.366193890571594238 0.129793167114257812
-0.303730964660644531 0.414491117000579834 -0.156528234481811523
0.0126793384552001953 0.446492969989776611 0.0428333282470703125
-0.178176164627075195 0.357280254364013672 0.283609867095947266
-0.241116523742675781 0.0789482146501541138 -0.350406408309936523
0.109521627426147461 0.448396921157836914 0.0643239021301269531
-0.250085115432739258 0.112993314862251282 -0.34761500358581543
0.178792238235473633 0.297683417797088623 0.334771633148193359
0.105199098587036133 0.449928581714630127 -0.264644622802734375
0.207484960556030273 0.0737534612417221069 0.345040082931518555
0.0749094486236572266 0.447361290454864502 0.141798973083496094
-0.266321182250976562 0.384122252464294434 0.254351139068603516
-0.338419914245605469 0.406290948390960693 0.0743308067321777344
-0.113572120666503906 0.444800019264221191 -0.124130010604858398
-0.339127779006958008 0.121094092726707458 0.249431133270263672
-0.191208839416503906 0.356134772300720215 0.280518293380737305
-0.296563625335693359 0.436241030693054199 -0.0673551559448242188
-0.134580135345458984 0.441924750804901123 -0.0132312774658203125
-0.218707799911499023 0.439832627773284912 -0.0788731575012207031
-0.22549128532409668 0.438425898551940918 0.059200286865234375
-0.320783376693725586 0.224611565470695496 0.256635427474975586
-0.237879514694213867 0.103291824460029602 -0.351675510406494141
0.00188446044921875 0.442960619926452637 0.274089813232421875
-0.32707977294921875 0.299375593662261963 0.251277685165405273
-0.278124809265136719 0.232147172093391418 -0.3033599853515625
0.139957666397094727 0.453735709190368652 -0.121455192565917969
-0.362546443939208984 0.0899626761674880981 0.194037437438964844
-0.295215368270874023 0.428787589073181152 -0.185315132141113281
-0.35449528694152832 0.14906330406665802 0.18457484245300293
0.224823713302612305 0.440748810768127441 0.134821653366088867
0.110573530197143555 0.445646822452545166 0.250043869018554688
0.199561834335327148 0.443362236022949219 0.125945568084716797
0.172823667526245117 0.446553587913513184 0.125412464141845703
0.0402691364288330078 0.374669373035430908 0.310166358947753906
0.277031660079956055 0.433742105960845947 -0.251788616180419922
-0.365567922592163086 0.121993958950042725 0.196745157241821289
0.270195722579956055 0.448043882846832275 -0.0196402072906494141
-0.130613327026367188 0.439233481884002686 -0.313676834106445312
-0.18095707893371582 0.415280044078826904 0.269584894180297852
-0.0322263240814208984 0.351969242095947266 0.289398431777954102
-0.193968534469604492 0.361696839332580566 0.274192571640014648
-0.365146160125732422 0.168275222182273865 0.230425357818603516
-0.266321182250976562 0.384122252464294434 0.254351139068603516
-0.245727777481079102 0.261092483997344971 -0.354912519454956055
-0.288515567779541016 0.364708244800567627 0.256069183349609375
0.163337945938110352 0.456471264362335205 -0.242475748062133789
0.25822901725769043 0.446938812732696533 0.150677919387817383
0.204464197158813477 0.122338414192199707 0.277805805206298828
0.282995462417602539 0.464840471744537354 0.00364995002746582031
0.0204694271087646484 0.444836974143981934 0.177780389785766602
-0.241116523742675781 0.0789482146501541138 -0.350406408309936523
-0.242276906967163086 0.327473044395446777 0.245067119598388672
-0.277139902114868164 0.349137544631958008 -0.252100706100463867
-0.27858281135559082 0.438182950019836426 -0.131373405456542969
-0.0862114429473876953 0.356074869632720947 0.286295413970947266
-0.324252843856811523 0.251118838787078857 0.185020208358764648
0.151327848434448242 0.324701070785522461 0.297335624694824219
0.204124212265014648 0.297812938690185547 0.340971946716308594
0.265534639358520508 0.450138628482818604 0.129405736923217773
0.0954210758209228516 0.44639056921005249 0.213540554046630859
-0.156799793243408203 0.425056636333465576 -0.330360651016235352
0.267526865005493164 0.449516057968139648 0.0875918865203857422
-0.163972139358520508 0.349716901779174805 0.279065608978271484
-0.334155559539794922 0.315715909004211426 0.173463821411132812
-0.0384197235107421875 0.447438478469848633 -0.174086332321166992
-0.282805204391479492 0.393913686275482178 0.250342130661010742
-0.180163145065307617 0.361751973628997803 0.27773737907409668
0.237949132919311523 0.441884756088256836 0.0368053913116455078
0.234207391738891602 0.437469720840454102 0.253371238708496094
-0.243289709091186523 0.341043591499328613 0.262901782989501953
-0.118177652359008789 0.442880749702453613 -0.043430328369140625
0.0967457294464111328 0.445307731628417969 0.276458740234375
0.145925283432006836 0.442259013652801514 0.303482770919799805
0.0728013515472412109 0.448332548141479492 0.249905824661254883
-0.258612155914306641 0.0247747153043746948 -0.339927911758422852
0.0781676769256591797 0.367874622344970703 0.310921430587768555
0.161206483840942383 0.453999996185302734 -0.123042106628417969
-0.28615880012512207 0.377683460712432861 -0.266873359680175781
0.0838634967803955078 0.450173676013946533 -0.0523200035095214844
-0.320608854293823242 0.364879846572875977 -0.0576534271240234375
-0.277775049209594727 0.248006716370582581 -0.292001247406005859
-0.345360994338989258 0.0311330333352088928 0.181486606597900391
0.312669992446899414 0.428937554359436035 -0.25918126106262207
0.149585485458374023 0.330033481121063232 0.303931236267089844
0.16968846321105957 0.106264576315879822 0.343391895294189453
0.00596570968627929688 0.446319997310638428 0.0117249488830566406
-0.323444128036499023 0.40918344259262085 -0.0333733558654785156
0.168544530868530273 0.248001947999000549 0.309122323989868164
0.0847408771514892578 0.453267514705657959 -0.261391878128051758
-0.212207794189453125 0.440980136394500732 -0.190373420715332031
-0.165821552276611328 0.436796784400939941 0.24578857421875
-0.301797866821289062 0.436801314353942871 0.0147783756256103516
0.169279336929321289 0.293720662593841553 0.325465202331542969
-0.340112686157226562 0.420527517795562744 0.108747243881225586
-0.0305435657501220703 0.447703838348388672 -0.287667036056518555
0.0464377403259277344 0.409325540065765381 0.306937217712402344
-0.32889103889465332 0.262977361679077148 0.173435211181640625
0.190632104873657227 0.453832507133483887 -0.162501335144042969
-0.308294773101806641 0.430924654006958008 -0.0934531688690185547
-0.274609088897705078 0.12155073881149292 -0.290842533111572266
-0.163972139358520508 0.349716901779174805 0.279065608978271484
0.208570718765258789 0.290420651435852051 0.243971586227416992
-0.365042448043823242 0.102387994527816772 0.201054573059082031
-0.0251312255859375 0.446765363216400146 -0.0925235748291015625
-0.317804574966430664 0.367833375930786133 -0.0788652896881103516
0.0135037899017333984 0.444866299629211426 0.226106405258178711
-0.220111370086669922 0.438204109668731689 -0.325952053070068359
0.181394815444946289 0.449054539203643799 0.00974631309509277344
-0.133107185363769531 0.445016562938690186 -0.298003196716308594
0.174590349197387695 0.310909450054168701 0.268168926239013672
0.219837427139282227 0.441971004009246826 0.125359058380126953
0.0180423259735107422 0.450180590152740479 -0.156623363494873047
-0.367346763610839844 0.0384725183248519897 0.220859050750732422
0.17219996452331543 0.139546051621437073 0.297008514404296875
-0.264707803726196289 0.438431680202484131 -0.210873603820800781
0.167559385299682617 0.0978202372789382935 0.296446084976196289
0.301250219345092773 0.0310851782560348511 0.336086750030517578
-0.351839065551757812 0.294997215270996094 0.187529563903808594
-0.239368200302124023 0.431160688400268555 -0.341371297836303711
-0.170638561248779297 0.392790555953979492 0.268327236175537109
0.182127237319946289 0.27448880672454834 0.287414073944091797
0.00572609901428222656 0.450562596321105957 -0.221769571304321289
-0.278387784957885742 0.30311131477355957 -0.294183492660522461
0.320129156112670898 0.436852574348449707 -0.262099266052246094
-0.337131023406982422 0.388751864433288574 0.243613481521606445
0.238705873489379883 0.318555831909179688 0.352073907852172852
-0.130105018615722656 0.439076721668243408 0.173753976821899414
-0.0526261329650878906 0.441765248775482178 0.21575474739074707
0.236963987350463867 0.439104914665222168 0.236191749572753906
-0.247670173645019531 0.287238955497741699 -0.354877233505249023
0.267610788345336914 0.450096547603607178 -0.23950505256652832
0.305133581161499023 0.452869415283203125 -0.242106914520263672
-0.363171815872192383 0.0422213971614837646 0.238745689392089844
0.16968846321105957 0.106264576315879822 0.343391895294189453
-0.147978782653808594 0.361395776271820068 0.285716056823730469
-0.163972139358520508 0.349716901779174805 0.279065608978271484
-0.27927398681640625 0.35769277811050415 0.259079456329345703
-0.180542945861816406 0.431341409683227539 0.261671304702758789
0.211179494857788086 0.436467528343200684 0.278700351715087891
0.196945905685424805 0.0387957990169525146 0.281456708908081055
0.161459207534790039 0.0392823219299316406 0.339779376983642578
-0.0732076168060302734 0.443666160106658936 0.0101265907287597656
0.232702970504760742 0.292817354202270508 0.351141214370727539
-0.196533203125 0.436473488807678223 -0.329304218292236328
0.203015565872192383 0.173625156283378601 0.345574140548706055
-0.0132987499237060547 0.445530235767364502 0.0268869400024414062
-0.130136013031005859 0.442097604274749756 0.0512552261352539062
-0.345386981964111328 0.337383866310119629 0.242978811264038086
0.178792238235473633 0.297683417797088623 0.334771633148193359
0.217165231704711914 0.4023590087890625 0.334722518920898438
0.22648167610168457 0.440530061721801758 0.152439117431640625
-0.339971303939819336 0.144829899072647095 0.174533367156982422
0.0923154354095458984 0.447935521602630615 -0.269845724105834961
-0.324451208114624023 0.433055222034454346 0.222593307495117188
-0.335831165313720703 0.432548463344573975 0.123177766799926758
0.0197813510894775391 0.364346146583557129 0.306226968765258789
0.160729646682739258 0.0659645646810531616 0.318148374557495117
-0.339713573455810547 0.431542515754699707 0.156014442443847656
0.0402691364288330078 0.374669373035430908 0.310166358947753906
0.0298299789428710938 0.446607649326324463 -0.0131094455718994141
-0.32889103889465332 0.262977361679077148 0.173435211181640625
-0.0196321010589599609 0.450147926807403564 -0.276743650436401367
-0.1000213623046875 0.404564082622528076 0.280820131301879883
-0.267098188400268555 0.363535046577453613 0.260279655456542969
-0.239393234252929688 0.32258903980255127 0.226738214492797852
0.217927694320678711 0.250153183937072754 0.345955848693847656
-0.130105018615722656 0.439076721668243408 0.173753976821899414
-0.196841955184936523 0.425617098808288574 -0.341545581817626953
0.0838634967803955078 0.450173676013946533 -0.0523200035095214844
0.138269186019897461 0.444870710372924805 0.235467195510864258
-0.27296900749206543 0.25702822208404541 -0.285321950912475586
-0.303730964660644531 0.414491117000579834 -0.156528234481811523
-0.244985342025756836 0.439002513885498047 -0.323204517364501953
0.10283970832824707 0.358676135540008545 0.310388326644897461
0.0515968799591064453 0.451928555965423584 -0.202712059020996094
-0.296082735061645508 0.43624955415725708 0.0696268081665039062
-0.220111370086669922 0.438204109668731689 -0.325952053070068359
0.0466105937957763672 0.447361946105957031 0.1126251220703125
-0.273972511291503906 0.149529516696929932 -0.290954351425170898
-0.178176164627075195 0.357280254364013672 0.283609867095947266
0.167076826095581055 0.166513100266456604 0.314467191696166992
-0.32889103889465332 0.262977361679077148 0.173435211181640625
0.325959920883178711 0.43108600378036499 -0.26423192024230957
-0.318343162536621094 0.394298553466796875 0.244649171829223633
-0.123179912567138672 0.431234538555145264 -0.324654579162597656
-0.217282295227050781 0.34944915771484375 0.27069091796875
-0.0990951061248779297 0.439437448978424072 0.228133678436279297
0.0109350681304931641 0.432790875434875488 0.298959732055664062
-0.104282617568969727 0.392639100551605225 0.282170534133911133
0.228654146194458008 0.436625182628631592 0.190462350845336914
-0.196841955184936523 0.425617098808288574 -0.341545581817626953
-0.0926973819732666016 0.447817802429199219 -0.255355358123779297
-0.268764019012451172 0.0576879233121871948 -0.285517454147338867
-0.176419973373413086 0.380841076374053955 0.271506786346435547
-0.303823232650756836 0.381058454513549805 -0.163320064544677734
0.0757896900177001953 0.450695991516113281 -0.127384662628173828
-0.362200021743774414 0.295683443546295166 0.219126701354980469
0.22595667839050293 0.185214772820472717 0.261752843856811523
0.0762507915496826172 0.448718070983886719 0.121700525283813477
-0.145357131958007812 0.443619787693023682 -0.122818470001220703
0.174710988998413086 0.457029879093170166 -0.225320339202880859
-0.357479333877563477 0.127757847309112549 0.242304086685180664
0.0745403766632080078 0.447741210460662842 0.236726045608520508
0.118222951889038086 0.450419485569000244 -0.0209345817565917969
0.184271574020385742 0.457215845584869385 -0.237569570541381836
0.172399282455444336 0.442194581031799316 0.165578365325927734
0.18083500862121582 0.448544859886169434 -0.258656024932861328
0.234083890914916992 0.269388079643249512 0.243073463439941406
-0.0862114429473876953 0.356074869632720947 0.286295413970947266
0.11227726936340332 0.447198569774627686 0.190418481826782227
-0.00433444976806640625 0.449769437313079834 -0.179279565811157227
0.194560766220092773 0.0610583573579788208 0.283905744552612305
0.143198251724243164 0.450776875019073486 0.0696356296539306641
0.169014215469360352 0.453808188438415527 -0.172065496444702148
-0.329513072967529297 0.366427242755889893 0.00934576988220214844
-0.139647245407104492 0.421702086925506592 -0.326610565185546875
-0.348223447799682617 0.385120928287506104 0.146564245223999023
0.169279336929321289 0.293720662593841553 0.325465202331542969
-0.331327199935913086 0.262160778045654297 0.248807191848754883
0.160279035568237305 0.0896834284067153931 0.320626735687255859
-0.294046878814697266 0.435375332832336426 -0.12651371955871582
-0.0170199871063232422 0.426485002040863037 -0.307776451110839844
0.132948160171508789 0.431942522525787354 -0.277471065521240234
0.220793962478637695 0.437387704849243164 0.227484941482543945
0.121076345443725586 0.443830728530883789 0.231049060821533203
-0.336225032806396484 0.432496488094329834 0.175853252410888672
-0.275524616241455078 0.165749326348304749 -0.309237480163574219
0.161124944686889648 0.450099825859069824 0.0628991127014160156
0.0646405220031738281 0.439275920391082764 0.303323030471801758
0.218598127365112305 0.336716771125793457 0.339518070220947266
-0.327275991439819336 0.425951778888702393 0.0119369029998779297
-0.272428274154663086 0.234571084380149841 -0.324509382247924805
-0.322196245193481445 0.362303435802459717 0.249143362045288086
0.226896524429321289 0.441959619522094727 0.0875236988067626953
0.110993146896362305 0.447918593883514404 0.16213679313659668
0.139183282852172852 0.453489601612091064 -0.0894067287445068359
-0.268764019012451172 0.0576879233121871948 -0.285517454147338867
0.154102563858032227 0.446561872959136963 -0.263234138488769531
0.161459207534790039 0.0392823219299316406 0.339779376983642578
-0.0812659263610839844 0.423793911933898926 0.286950349807739258
-0.139647245407104492 0.421702086925506592 -0.326610565185546875
-0.335806369781494141 0.411985337734222412 0.0490198135375976562
0.0562765598297119141 0.441698014736175537 0.296351194381713867
-0.0523610115051269531 0.444358289241790771 0.0431101322174072266
-0.321748495101928711 0.418433487415313721 -0.0366234779357910156
0.0987017154693603516 0.438245296478271484 -0.279758930206298828
-0.350840330123901367 0.354753077030181885 0.161913633346557617
0.277146577835083008 0.456978261470794678 0.0409266948699951172
0.123659849166870117 0.435957252979278564 -0.279803991317749023
-0.358467578887939453 0.280089497566223145 0.195012569427490234
-0.332983732223510742 0.238131418824195862 0.172540187835693359
0.34104466438293457 0.424008488655090332 -0.262354373931884766
-0.118177652359008789 0.442880749702453613 -0.043430328369140625
-0.361606359481811523 0.310308456420898438 0.21262669563293457
-0.308346271514892578 0.308360815048217773 0.260298490524291992
0.208570718765258789 0.290420651435852051 0.243971586227416992
-0.272927045822143555 0.220760181546211243 -0.325938224792480469
0.207975625991821289 0.454693078994750977 -0.245123147964477539
0.0687663555145263672 0.45033949613571167 -0.0719439983367919922
0.13786625862121582 0.449475884437561035 0.0926949977874755859
-0.22173309326171875 0.361775636672973633 0.270441532135009766
-0.267858266830444336 0.21410118043422699 -0.333258390426635742
-0.366166830062866211 0.17968343198299408 0.219126701354980469
-0.0945038795471191406 0.443841457366943359 -0.0112149715423583984
0.00188446044921875 0.442960619926452637 0.274089813232421875
-0.29570770263671875 0.436471819877624512 -0.0168733596801757812
0.0835053920745849609 0.431508660316467285 -0.287154912948608398
0.0113530158996582031 0.451204121112823486 -0.238698005676269531
0.21835780143737793 0.445216536521911621 -0.0863287448883056641
-0.153371334075927734 0.404064297676086426 0.271769046783447266
0.0344898700714111328 0.448341608047485352 0.0449364185333251953
-0.0411314964294433594 0.419292747974395752 0.294556379318237305
-0.181038856506347656 0.437717139720916748 0.188413143157958984
-0.205176353454589844 0.441772997379302979 -0.26072239875793457
0.256462335586547852 0.444588541984558105 0.0862421989440917969
0.166620492935180664 0.307286381721496582 0.302022695541381836
0.25938868522644043 0.446684658527374268 0.108768463134765625
0.191204309463500977 0.437128365039825439 0.287362575531005859
-0.286110401153564453 0.428613424301147461 0.243541955947875977
-0.338687419891357422 0.0650794357061386108 0.174023628234863281
0.140733957290649414 0.452297031879425049 -0.0734236240386962891
0.117003202438354492 0.367077887058258057 0.316927909851074219
0.12702631950378418 0.445477306842803955 0.28365635871887207
-0.148749589920043945 0.443267345428466797 -0.0621292591094970703
-0.26277613639831543 0.436604440212249756 0.0206418037414550781
-0.326776981353759766 0.0652994811534881592 0.176923274993896484
-0.277139902114868164 0.349137544631958008 -0.252100706100463867
0.160254240036010742 0.448038995265960693 0.0501251220703125
-0.153371334075927734 0.404064297676086426 0.271769046783447266
0.0266351699829101562 0.443746685981750488 0.271443367004394531
0.142804861068725586 0.453118085861206055 -0.253861904144287109
-0.287240982055664062 0.427961766719818115 -0.243829011917114258
-0.196841955184936523 0.425617098808288574 -0.341545581817626953
-0.324164152145385742 0.331295013427734375 0.263662576675415039
-0.262957334518432617 0.32157742977142334 -0.342652797698974609
0.13089299201965332 0.449505746364593506 0.0226352214813232422
-0.365298748016357422 0.0920426547527313232 0.234740972518920898
-0.306303977966308594 0.433279633522033691 0.229483366012573242
-0.345360994338989258 0.0311330333352088928 0.181486606597900391
0.242818593978881836 0.441288471221923828 0.165200948715209961
0.234207391738891602 0.437469720840454102 0.253371238708496094
-0.366979598999023438 0.0876364409923553467 0.222893953323364258
0.163337945938110352 0.456471264362335205 -0.242475748062133789
-0.363386869430541992 0.223727390170097351 0.199491262435913086
-0.33188939094543457 0.43083566427230835 0.0784907341003417969
-0.241618633270263672 0.357878744602203369 0.267267465591430664
-0.318393230438232422 0.291311800479888916 0.258900880813598633
-0.166534900665283203 0.359244465827941895 0.285304784774780273
0.0075893402099609375 0.450352370738983154 -0.209804296493530273
-0.35449528694152832 0.14906330406665802 0.18457484245300293
0.119702577590942383 0.450212776660919189 0.0738947391510009766
0.147593259811401367 0.393359482288360596 0.325779438018798828
-0.264718294143676758 0.341054081916809082 -0.266537904739379883
-0.0612008571624755859 0.448020339012145996 -0.205038309097290039
0.25822901725769043 0.446938812732696533 0.150677919387817383
-0.271322488784790039 0.2604178786277771 -0.327071428298950195
0.269424676895141602 0.450031578540802002 -0.189906120300292969
-0.0532972812652587891 0.392799735069274902 0.291666984558105469
-0.365154266357421875 0.0683443844318389893 0.234683990478515625
0.127939462661743164 0.441030919551849365 0.309763193130493164
-0.265837669372558594 0.0287198200821876526 -0.327666997909545898
-0.149582624435424805 0.444403231143951416 -0.256373167037963867
-0.171207666397094727 0.442666590213775635 -0.162873268127441406
0.0583136081695556641 0.448572337627410889 0.00465369224548339844
0.117851972579956055 0.444834411144256592 0.301508665084838867
-0.294046878814697266 0.435375332832336426 -0.12651371955871582
-0.308070659637451172 0.275098562240600586 0.255919456481933594
-0.24768829345703125 0.367515802383422852 0.263545513153076172
0.271028280258178711 0.450631976127624512 0.0227997303009033203
0.25609135627746582 0.445403456687927246 -0.0828783512115478516
0.221665620803833008 0.44154667854309082 -0.256712913513183594
-0.22395777702331543 0.438521921634674072 0.0386266708374023438
-0.319594621658325195 0.425062358379364014 -0.0389206409454345703
-0.20091557502746582 0.35216522216796875 0.277600526809692383
-0.273777008056640625 0.43448561429977417 0.230087041854858398
0.0531392097473144531 0.453057706356048584 -0.175429582595825195
-0.352194547653198242 0.392589747905731201 0.171774864196777344
-0.22070765495300293 0.436417937278747559 0.197376728057861328
0.169660329818725586 0.129362210631370544 0.341514110565185547
0.051746368408203125 0.445701181888580322 0.133644580841064453
0.157193422317504883 0.0352982878684997559 0.324601650238037109
-0.348737716674804688 0.429986059665679932 0.21036982536315918
0.174659967422485352 0.0406570881605148315 0.348062038421630859
0.156395673751831055 0.0179062485694885254 0.317936897277832031
-0.322643518447875977 0.323246419429779053 0.262636661529541016
-0.163207769393920898 0.441394269466400146 -0.00887322425842285156
-0.245933055877685547 0.4353829026222229 0.229036331176757812
-0.120045900344848633 0.439123213291168213 0.241130828857421875
-0.318648338317871094 0.432758331298828125 0.0132167339324951172
-0.0319731235504150391 0.450195610523223877 -0.243935823440551758
-0.279168128967285156 0.341710269451141357 0.258567333221435547
-0.207604169845581055 0.370775818824768066 0.269445896148681641
0.221635103225708008 0.245829865336418152 0.261594772338867188
-0.0268437862396240234 0.407538652420043945 0.294088602066040039
-0.11102747917175293 0.446572542190551758 -0.267696380615234375
0.0766675472259521484 0.449023902416229248 0.0211265087127685547
0.239241361618041992 0.426631569862365723 0.340799093246459961
-0.278124809265136719 0.232147172093391418 -0.3033599853515625
0.246856451034545898 0.248582795262336731 0.235385656356811523
-0.365904569625854492 0.0108090788125991821 0.232225179672241211
-0.337770223617553711 0.38333970308303833 0.0790617465972900391
0.149585485458374023 0.330033481121063232 0.303931236267089844
0.103087186813354492 0.443521559238433838 0.304596900939941406
0.205893278121948242 0.206278339028358459 0.275229215621948242
-0.0911765098571777344 0.446314871311187744 -0.232545137405395508
-0.360513210296630859 0.2103414386510849 0.192057132720947266
-0.220123291015625 0.405469954013824463 -0.342571020126342773
0.102517843246459961 0.453802108764648438 -0.204243898391723633
-0.0199756622314453125 0.43770754337310791 -0.300912380218505859
0.194849252700805664 0.447780430316925049 -0.0607357025146484375
-0.339127779006958008 0.121094092726707458 0.249431133270263672
-0.0765223503112792969 0.432740986347198486 -0.314124107360839844
0.180608987808227539 0.295064389705657959 0.285189628601074219
0.169564962387084961 0.263933420181274414 0.327126741409301758
0.0249609947204589844 0.451137006282806396 -0.236847400665283203
0.190632104873657227 0.453832507133483887 -0.162501335144042969
0.231885671615600586 0.441694557666778564 0.0750563144683837891
-0.266042947769165039 0.335456788539886475 0.251508474349975586
0.0837280750274658203 0.447178661823272705 0.192412614822387695
-0.0512087345123291016 0.435561060905456543 0.285104513168334961
0.301250219345092773 0.0310851782560348511 0.336086750030517578
-0.261041402816772461 0.298151016235351562 -0.343308925628662109
0.233827352523803711 0.273156881332397461 0.354352474212646484
0.16968846321105957 0.106264576315879822 0.343391895294189453
-0.0414183139801025391 0.445840358734130859 -0.0277192592620849609
0.179224729537963867 0.448275983333587646 -0.00590300559997558594
-0.365154266357421875 0.0683443844318389893 0.234683990478515625
-0.122670412063598633 0.440216720104217529 0.105011463165283203
0.275559186935424805 0.449065327644348145 -0.0370149612426757812
0.191212892532348633 0.447723209857940674 -0.0499420166015625
0.207822561264038086 0.438389360904693604 0.199655055999755859
-0.24768829345703125 0.367515802383422852 0.263545513153076172
-0.0319731235504150391 0.450195610523223877 -0.243935823440551758
0.228143453598022461 0.245340898633003235 0.352731466293334961
0.0980546474456787109 0.452700674533843994 -0.124509572982788086
-0.331327199935913086 0.262160778045654297 0.248807191848754883
0.0597832202911376953 0.447400033473968506 0.0749285221099853516
-0.362866401672363281 0.24869970977306366 0.229615688323974609
-0.365042448043823242 0.102387994527816772 0.201054573059082031
0.0791890621185302734 0.452495396137237549 -0.1483001708984375
0.222105264663696289 0.438566982746124268 0.241733789443969727
0.0391213893890380859 0.452401220798492432 -0.217349529266357422
0.0579557418823242188 0.44795912504196167 -0.0488665103912353516
0.23012995719909668 0.446325898170471191 -0.101092100143432617
-0.287888050079345703 0.23260219395160675 0.243419408798217773
0.282995462417602539 0.464840471744537354 0.00364995002746582031
0.211533308029174805 0.447762191295623779 -0.103252172470092773
0.0075893402099609375 0.450352370738983154 -0.209804296493530273
0.137937307357788086 0.451091170310974121 0.0345928668975830078
0.244060754776000977 0.445185244083404541 -0.127481222152709961
0.173038721084594727 0.451808452606201172 -0.0921094417572021484
-0.0953719615936279297 0.441428959369659424 0.151278495788574219
-0.118707656860351562 0.442692995071411133 0.00581407546997070312
0.275536298751831055 0.448208153247833252 -0.0889902114868164062
0.150497198104858398 0.446110427379608154 0.222509145736694336
-0.219247579574584961 0.393078923225402832 0.260174036026000977
-0.322569370269775391 0.278340041637420654 0.255556821823120117
-0.229850292205810547 0.383550822734832764 0.261277437210083008
0.196478605270385742 0.45714646577835083 -0.225841999053955078
-0.113804101943969727 0.417677342891693115 0.280935049057006836
0.137937307357788086 0.451091170310974121 0.0345928668975830078
-0.332264423370361328 0.0275752320885658264 0.170554876327514648
-0.301269292831420898 0.301340878009796143 0.257460117340087891
-0.341533660888671875 0.0492014139890670776 0.178415536880493164
-0.0295331478118896484 0.445298194885253906 0.0100116729736328125
0.18083500862121582 0.448544859886169434 -0.258656024932861328
0.180608987808227539 0.295064389705657959 0.285189628601074219
0.226076841354370117 0.266860544681549072 0.348742246627807617
-0.100709676742553711 0.439694702625274658 0.253510236740112305
-0.170638561248779297 0.392790555953979492 0.268327236175537109
0.173435449600219727 0.429588019847869873 -0.276514530181884766
-0.359560728073120117 0.329971075057983398 0.226480722427368164
-0.200365066528320312 0.44162297248840332 -0.311905145645141602
0.152797937393188477 0.448332667350769043 0.0757310390472412109
-0.305197000503540039 0.247246459126472473 0.252951860427856445
0.149353265762329102 0.451813578605651855 -0.0332977771759033203
0.0459334850311279297 0.432746469974517822 0.303997039794921875
0.130025625228881836 0.440775871276855469 -0.272558212280273438
-0.266559362411499023 0.424736320972442627 -0.334501743316650391
-0.170638561248779297 0.392790555953979492 0.268327236175537109
0.173574209213256836 0.442749500274658203 0.210458040237426758
0.230289697647094727 0.216877773404121399 0.256503105163574219
0.228509187698364258 0.316612422466278076 0.344752311706542969
-0.0119810104370117188 0.443512022495269775 0.233733892440795898
-0.344191551208496094 0.394745945930480957 0.125501632690429688
-0.326500177383422852 0.422475695610046387 -0.00651001930236816406
-0.213649511337280273 0.435259580612182617 0.240354299545288086
0.18316197395324707 0.306151092052459717 0.25733494758605957
-0.146973133087158203 0.442175805568695068 -0.0458018779754638672
0.270647764205932617 0.061124071478843689 0.342760324478149414
-0.137788772583007812 0.428548514842987061 0.272452354431152344
-0.343242406845092773 0.315403938293457031 0.244053840637207031
-0.263212442398071289 0.179017141461372375 -0.335798740386962891
-0.30597686767578125 0.385683417320251465 -0.144873380661010742
-0.301156759262084961 0.434981882572174072 -0.0787553787231445312
-0.305542230606079102 0.34812694787979126 0.261629819869995117
-0.273330450057983398 0.046260446310043335 -0.298946619033813477
-0.360724449157714844 0.26262819766998291 0.199791193008422852
0.235593557357788086 0.116526678204536438 0.362261772155761719
0.0570099353790283203 0.448900043964385986 -0.0287063121795654297
-0.166534900665283203 0.359244465827941895 0.285304784774780273
0.00561475753784179688 0.452280938625335693 -0.265061616897583008
-0.0637071132659912109 0.444140076637268066 0.0530664920806884766
0.15906071662902832 0.0138136222958564758 0.303469657897949219
0.25822901725769043 0.446938812732696533 0.150677919387817383
0.160844087600708008 0.441784143447875977 0.279906988143920898
0.14872431755065918 0.455730140209197998 -0.113593339920043945
0.285402536392211914 0.459532856941223145 -0.0372955799102783203
0.0545105934143066406 0.424679756164550781 0.308480501174926758
-0.0416128635406494141 0.441101551055908203 0.228671789169311523
-0.360177993774414062 0.315030455589294434 0.201808691024780273
-0.263145208358764648 0.269244015216827393 -0.339885473251342773
-0.0175015926361083984 0.442866742610931396 0.160819530487060547
-0.225207805633544922 0.439196765422821045 -0.0508732795715332031
-0.303070545196533203 0.429867565631866455 -0.124094247817993164
-0.270743608474731445 0.132293403148651123 -0.283875226974487305
0.0374896526336669922 0.446509659290313721 0.0866611003875732422
0.202392816543579102 0.0563000887632369995 0.290684700012207031
-0.180163145065307617 0.361751973628997803 0.27773737907409668
0.200781583786010742 0.440812766551971436 0.143512248992919922
-0.0945038795471191406 0.443841457366943359 -0.0112149715423583984
-0.303730964660644531 0.414491117000579834 -0.156528234481811523
-0.358467578887939453 0.280089497566223145 0.195012569427490234
0.0283696651458740234 0.448717892169952393 -0.0824198722839355469
0.221635103225708008 0.245829865336418152 0.261594772338867188
-0.327326536178588867 0.42933809757232666 0.0318012237548828125
-0.362074613571166992 0.178477540612220764 0.235178470611572266
0.219315290451049805 0.453068673610687256 -0.1930084228515625
0.0244803428649902344 0.353427112102508545 0.299535036087036133
0.269106149673461914 0.453898847103118896 0.100726127624511719
-0.244985342025756836 0.439002513885498047 -0.323204517364501953
-0.22173309326171875 0.361775636672973633 0.270441532135009766
-0.360412359237670898 0.133149906992912292 0.18925023078918457
0.117851972579956055 0.444834411144256592 0.301508665084838867
-0.360054254531860352 0.351600766181945801 0.215323448181152344
-0.27490997314453125 0.103128388524055481 -0.292153835296630859
-0.356210947036743164 0.350783944129943848 0.235374927520751953
-0.298395395278930664 0.435676395893096924 0.123939037322998047
0.166585206985473633 0.234788790345191956 0.320441961288452148
-0.27109837532043457 0.437743306159973145 -0.071262359619140625
-0.33009648323059082 0.225307419896125793 0.175324440002441406
-0.285347938537597656 0.421819150447845459 -0.263829708099365234
0.150656461715698242 0.444717824459075928 0.245099306106567383
0.200718164443969727 0.0688721835613250732 0.293191909790039062
-0.236444234848022461 0.145693808794021606 -0.346616744995117188
-0.294046878814697266 0.435375332832336426 -0.12651371955871582
-0.241116523742675781 0.0789482146501541138 -0.350406408309936523
0.0954210758209228516 0.44639056921005249 0.213540554046630859
0.288496255874633789 0.0414024591445922852 0.335060358047485352
-0.294046878814697266 0.435375332832336426 -0.12651371955871582
0.0551335811614990234 0.429648160934448242 -0.293375730514526367
0.166731119155883789 0.231300011277198792 0.312227487564086914
-0.215670347213745117 0.431227326393127441 -0.338323116302490234
-0.364067792892456055 0.225406244397163391 0.227022886276245117
-0.299164533615112305 0.410925745964050293 0.249289989471435547
0.123495340347290039 0.453550994396209717 -0.144522905349731445
-0.19960474967956543 0.401183962821960449 0.264154672622680664
-0.147978782653808594 0.361395776271820068 0.285716056823730469
0.170183420181274414 0.0178252831101417542 0.292855501174926758
-0.179927587509155273 0.345817506313323975 0.275638818740844727
0.266443014144897461 0.448364853858947754 -0.215340137481689453
-0.221771240234375 0.438126027584075928 0.100907802581787109
0.196568727493286133 0.446580767631530762 -0.0199093818664550781
-0.274595737457275391 0.223935738205909729 -0.285854816436767578
-0.178685903549194336 0.428994715213775635 -0.336143970489501953
0.166664361953735352 0.157387658953666687 0.335201740264892578
-0.272428274154663086 0.234571084380149841 -0.324509382247924805
-0.178957700729370117 0.441252768039703369 -0.0433733463287353516
0.0808393955230712891 0.428837954998016357 0.313579320907592773
-0.277775049209594727 0.248006716370582581 -0.292001247406005859
0.232245206832885742 0.182333365082740784 0.358582258224487305
-0.361723184585571289 0.302920103073120117 0.228533744812011719
-0.23623967170715332 0.440857827663421631 -0.265339851379394531
0.227492570877075195 0.180794462561607361 0.35183262825012207
-0.156707763671875 0.444012105464935303 -0.155623435974121094
-0.244436979293823242 0.054264947772026062 -0.350322961807250977
0.11227726936340332 0.447198569774627686 0.190418481826782227
-0.145357131958007812 0.443619787693023682 -0.122818470001220703
0.154102563858032227 0.446561872959136963 -0.263234138488769531
-0.351983308792114258 0.298950314521789551 0.240332126617431641
-0.0201287269592285156 0.442158997058868408 0.275760889053344727
-0.33188939094543457 0.43083566427230835 0.0784907341003417969
-0.0597972869873046875 0.448542237281799316 -0.284314870834350586
-0.300650358200073242 0.434400379657745361 -0.105042934417724609
0.237122297286987305 0.441549241542816162 0.0579326152801513672
-0.302208185195922852 0.227559462189674377 0.250085353851318359
0.168544530868530273 0.248001947999000549 0.309122323989868164
-0.309100627899169922 0.433099627494812012 -0.0578105449676513672
0.102517843246459961 0.453802108764648438 -0.204243898391723633
0.327511072158813477 0.424896001815795898 -0.258753538131713867
-0.24776768684387207 0.313663840293884277 -0.355484962463378906
-0.0753126144409179688 0.351805269718170166 0.281892299652099609
-0.0270340442657470703 0.441426992416381836 0.257676124572753906
-0.0812659263610839844 0.423793911933898926 0.286950349807739258
0.226896524429321289 0.441959619522094727 0.0875236988067626953
0.217793703079223633 0.441136062145233154 0.0594959259033203125
0.226076841354370117 0.266860544681549072 0.348742246627807617
-0.362239599227905273 0.0807852447032928467 0.197498798370361328
0.187305688858032227 0.109923049807548523 0.350822925567626953
0.222319841384887695 0.449510633945465088 -0.131498813629150391
0.182127237319946289 0.27448880672454834 0.287414073944091797
-0.0908315181732177734 0.440638363361358643 0.214126348495483398
0.159228086471557617 0.0439159125089645386 0.33498692512512207
-0.272544384002685547 0.436969935894012451 -0.239885807037353516
0.0513944625854492188 0.450577795505523682 -0.127569198608398438
0.0562765598297119141 0.441698014736175537 0.296351194381713867
-0.357988119125366211 0.11187782883644104 0.240874052047729492
0.196478605270385742 0.45714646577835083 -0.225841999053955078
0.258164167404174805 0.449411928653717041 -0.167067289352416992
-0.0276112556457519531 0.444890141487121582 0.0423069000244140625
-0.275398015975952148 0.438032209873199463 -0.0928497314453125
0.0531392097473144531 0.453057706356048584 -0.175429582595825195
-0.189648151397705078 0.441536545753479004 -0.0297770500183105469
-0.301277637481689453 0.28410869836807251 0.257856369018554688
-0.0684998035430908203 0.441256463527679443 0.198775291442871094
0.116329431533813477 0.429353773593902588 0.317981719970703125
0.169212579727172852 0.22408507764339447 0.329451322555541992
0.0262949466705322266 0.447972595691680908 -0.279256105422973633
-0.360516071319580078 0.334183454513549805 0.217626571655273438
-0.286263704299926758 0.43496018648147583 -0.197314977645874023
-0.0442883968353271484 0.443926632404327393 0.07886505126953125
-0.326024055480957031 0.363483726978302002 -0.0140433311462402344
0.150861978530883789 0.444893181324005127 0.210978507995605469
0.0304703712463378906 0.449510812759399414 -0.0998733043670654297
-0.355837345123291016 0.415993750095367432 0.229639768600463867
0.169564962387084961 0.263933420181274414 0.327126741409301758
-0.0705020427703857422 0.445493638515472412 -0.0667526721954345703
0.0330069065093994141 0.444745838642120361 0.211034774780273438
-0.0530483722686767578 0.408917725086212158 0.289739608764648438
-0.267098188400268555 0.363535046577453613 0.260279655456542969
-0.355978965759277344 0.0582763105630874634 0.192341089248657227
0.287916421890258789 0.468680500984191895 -0.0296599864959716797
-0.0466685295104980469 0.444932043552398682 0.0648863315582275391
0.180608987808227539 0.295064389705657959 0.285189628601074219
0.224641084671020508 0.448549568653106689 -0.156792640686035156
-0.0631802082061767578 0.437408030033111572 0.277881145477294922
-0.27296900749206543 0.25702822208404541 -0.285321950912475586
0.160594701766967773 0.102058425545692444 0.325939178466796875
0.201988458633422852 0.114636406302452087 0.349255561828613281
-0.328194618225097656 0.309967875480651855 0.17146611213684082
-0.235499382019042969 0.412508189678192139 0.259122610092163086
-0.0175681114196777344 0.43259429931640625 -0.305243730545043945
0.21835780143737793 0.445216536521911621 -0.0863287448883056641
0.16759943962097168 0.440810024738311768 0.247834920883178711
-0.340112686157226562 0.420527517795562744 0.108747243881225586
-0.22395777702331543 0.438521921634674072 0.0386266708374023438
0.030673980712890625 0.43876570463180542 0.295205593109130859
0.160254240036010742 0.448038995265960693 0.0501251220703125
-0.279832839965820312 0.436459839344024658 0.0595641136169433594
0.207090139389038086 0.10477091372013092 0.290505886077880859
0.191212892532348633 0.447723209857940674 -0.0499420166015625
0.165961980819702148 0.324175775051116943 0.318139076232910156
-0.290587186813354492 0.331601500511169434 0.256962776184082031
0.142804861068725586 0.453118085861206055 -0.253861904144287109
0.103714227676391602 0.449532210826873779 0.175998926162719727
0.238326787948608398 0.376370847225189209 0.348453998565673828
-0.229897737503051758 0.0367739051580429077 -0.357825517654418945
0.116837263107299805 0.450345516204833984 0.00773835182189941406
0.185952901840209961 0.457449197769165039 -0.21271824836730957
-0.181038856506347656 0.437717139720916748 0.188413143157958984
0.18873906135559082 0.443646728992462158 0.07818603515625
-0.363204717636108398 0.197057798504829407 0.195654392242431641
-0.0765223503112792969 0.432740986347198486 -0.314124107360839844
-0.27858281135559082 0.438182950019836426 -0.131373405456542969
